# 3D point list with one line of data per point:
#   POINT3D_ID, X, Y, Z, R, G, B, ERROR, TRACK[] as (IMAGE_ID, POINT2D_IDX)
# Number of points: 330, mean track length: 6.8253996874624354
4500 4.045439227515943 1.0977426870107221 4.583843287512436 238 238 240 0.96057995853013201 32 3707 45 3179 49 2951 31 3718 21 1603
4501 4.287474909681154 1.2847593019658818 4.9218822589420679 67 69 64 1.2881785805836916 39 3967 41 3902 45 3218
4502 3.3195979836600684 1.3756319891359627 4.4124071848212187 215 207 197 0.70741087870749764 42 4089 44 3722 45 3252 43 2663 47 1559 52 1683
4503 3.2156726613726545 1.4001932995819348 4.240002073104395 200 193 185 0.34553728675020851 44 3737 45 3260 49 1818
4504 4.9709780199886362 1.4870219318774269 3.7183465989259679 179 173 159 0.30949303069299461 42 3569 45 3275 51 1650
4505 3.763924232064856 1.512122588939534 3.4543533983244044 213 206 190 0.42662961264985089 44 2403 46 1734 45 3278 43 2008 47 1601
4506 3.7634719357195277 1.5093880100055665 3.4436181444830511 213 206 190 0.28970339149926583 44 2404 45 3279 49 1845
4507 4.2225648680456773 1.5243384641011315 3.4300979233566502 178 170 157 0.48176832280182191 44 5275 46 2764 45 3282 43 2674 48 2649 49 1848
4508 2.5863381930844898 1.5450205215117772 3.2363015357222387 186 178 165 0.63186690142469981 44 4708 45 3286 47 2768 49 3084 48 2653 51 2731
4509 2.5722816602747387 1.5488083395834897 3.2495920331270347 229 221 208 0.53380827732659164 44 4707 45 3287 43 2676 47 1619 48 1622 49 3085 51 1669
4510 3.6207968394927477 1.557297484181571 3.2414524165953189 211 203 190 0.76631019493728292 44 4712 45 3297 43 2681 47 2774 49 1876 51 1679
4511 3.7835737243863017 1.5708955184989684 3.1695542660344191 175 167 154 0.59790960561321738 44 4721 45 3299 48 2660 49 3093 51 1687
4512 -0.043053621723491822 -2.7483151866745112 9.4241242687596838 95 82 74 0.98478995303231842 40 2333 45 3383 44 3869 43 2685 44 5280
4513 1.3904784651896982 -1.1282223196148935 6.5597763870344794 64 69 78 1.5645582320556832 39 5635 44 3893 45 3418 40 5070 41 3969 37 4121 37 5194
4515 -3.3627279493208446 -1.5789860496279138 10.678760483162243 170 146 118 0.90429702729755845 42 3597 44 3909 45 3436 47 2902 48 1843 51 1926 52 3335
4516 0.50888164783167189 -1.1063548648752182 8.7357738042684954 150 155 149 2.0270477369271771 41 77 44 2642 45 3453
4517 1.7409423163129223 -0.97917095492924611 7.8665043873515748 5 16 22 0.87236697758992798 39 5658 46 1882 45 3458 38 3872 40 5091 41 4537 42 4129 44 5315 43 2085 43 3184 38 4292 47 1877 37 5204 36 4325 34 3546
4519 0.60016068965973346 -0.1700014140827788 5.8361243426680147 90 91 96 0.57478105241186672 40 3721 45 3555 43 1348
4520 0.80440180308220455 -0.18010886434984008 6.3987974759265249 5 9 18 0.86951237845270746 44 5357 45 3567 52 3434 51 3508
4521 -0.093999777806449372 -0.10220847126939965 5.5464178000458331 139 60 97 0.35206010675966909 42 2961 45 3574 43 2173
4522 1.9758319453688635 -0.18781459630996206 7.2110041076682192 9 18 25 1.5347322939672625 45 3585 47 3051 31 3869 28 5212 27 2438 44 2828 16 3572
4523 1.4700917641856068 -0.12334709125350077 7.288038200577212 16 19 26 0.57697026423770315 38 3915 40 4574 46 3019 45 3605 39 5695 41 4086 44 4880 43 2843 47 3075 37 5256
4524 2.9522766947354464 -0.14334715432577089 7.517376983770772 39 42 51 0.87490355567260092 39 5109 40 4581 45 3610 41 4096 43 2215 34 4195
4525 2.793274502794771 -0.098217364887987421 7.0348123543413497 50 54 60 0.98495334793659017 38 3925 41 4108 45 3621
4526 3.2180282333784374 0.12965463260869864 4.39573288473128 64 65 68 1.0022457810170209 38 3464 45 3689 48 2176 49 2478 52 686
4527 2.7023883932220225 0.12607676961743403 7.0178625816618396 46 46 54 1.1657723848636581 32 3899 46 3118 45 3697 47 3197 48 2981 49 3478 51 3052 52 871 34 4266 36 4510 30 3554 31 3924 29 5302 27 2872 21 4066 24 4601 23 4744 11 3247 10 2088 3 1962 7 915 2 958
4528 5.6768555392160227 0.12273563405782906 4.0352776379917215 157 59 102 0.41174932784251 42 3191 45 3716 48 2168 44 4229 51 2228 52 2518
4529 1.6465046130280954 0.18526861491952523 6.3633068690547594 189 126 87 1.3775389827797622 41 4647 45 3720 39 5771 43 2927 48 2996 47 3218 51 2293 52 3556
4530 2.4237062167858801 0.23428708587937228 6.7710076656076277 156 155 91 1.3121070924748672 40 3958 41 4671 44 4253 45 3743 44 5476 43 3317 42 4591 49 3508 49 4068 47 3822 48 3512 51 971 48 2269 49 2588 52 945
4531 2.4249371322217135 0.23489790235630723 6.7226353700006038 156 155 91 0.86797292415919114 40 3959 44 4254 45 3744 49 2589 51 972
4532 6.0110176776470938 0.25729884477873621 5.0057200498840864 2 4 11 0.7891658216421279 42 3253 44 4302 45 3776 47 3259 49 2601
4533 1.0307643017977188 0.36530732794101195 5.8839461077836042 196 191 186 1.6294709806625276 38 3553 39 5284 45 3779 1 747
4534 0.99995561239487463 0.37135118818618318 5.8324157068773754 254 251 245 0.75937160196059283 44 4293 45 3781 49 3559
4535 6.4540827225574722 0.33180519710892553 5.7899013433020361 165 166 161 0.31047493118111086 41 3631 42 3274 44 5029 45 3800 40 4090 47 3290 48 3049 49 3555 51 3108 52 3634
4536 6.7490484173997585 0.33473728289312804 5.7219198511095835 47 48 45 0.54604796742883621 40 4092 45 3806 48 3054
4537 0.90462065694690241 0.53910067671628459 5.9489724451675778 26 26 26 0.84496327744393362 44 4373 45 3827 43 2458 51 2451 42 2506 26 2941
4538 6.0866060458246576 0.43775164880777645 4.8429780546447114 103 104 103 0.36624144222226523 42 3922 45 3840 47 2474 48 1167
4539 4.1608110539612966 0.47972500453410633 4.9429696100703264 47 50 55 0.8457706220226926 41 4328 44 4403 45 3841 47 2482 51 2444
4540 0.59157383032402955 0.62169629731427234 6.0275317912817137 204 204 202 0.96626309215669992 40 4824 44 5072 45 3846 49 3623 23 5839 18 3463 15 3828 4 2452 2 2967
4541 2.5093597295322327 0.54834219987853283 5.4295643798165294 132 133 127 1.8695913331102225 44 4404 38 3008 20 3528 45 3847 37 4535 50 608 34 3974
4542 5.8752823722149499 0.45742880004810987 4.6121289789408912 101 99 100 1.0887765774924694 40 4199 45 3854 51 2439 52 2759
4543 1.2999829099881788 0.61073376962072812 5.7155995649164124 42 42 42 1.7946932196663601 38 4128 40 4846 37 5048 45 3859
4544 1.2089039612813868 0.7008840244837985 5.7763566417298895 104 104 102 0.81006992713827097 38 3672 45 3876 43 2508 41 4360 42 3949 47 3396 37 5063 48 3150 49 3646 51 3205 52 3713
4545 5.0978064479050866 0.56305398437817111 4.699243825258236 67 67 68 0.18935597735655024 41 3758 45 3881
4546 4.3926448800211597 0.59835452798373256 4.9424921814886975 131 133 128 0.76942982594579679 40 4886 44 4469 45 3885
4547 5.5726548201988084 0.57201392275851382 4.5420535658560306 49 50 52 1.0446790587468207 39 5430 40 4896 45 3888 47 3922 44 5566 49 3631 51 2488 52 3708
4549 1.0493612709264368 0.81925888917403733 5.7678940220754189 213 210 202 2.3472017682435036 40 4242 42 2632 45 3903 51 1341
4550 5.0133246999493526 0.8125021527484384 4.7161492542162229 183 189 185 0.11847894209134253 42 4008 45 3945 49 3687
4551 1.4580380676201226 1.023020881585196 5.5647563187968219 24 27 32 1.2141015310406196 40 4948 42 4005 45 3952
4552 5.1224383184568252 0.94003029363696089 4.6645992521816524 68 68 68 0.68102102016755239 42 3487 44 3603 45 3964 33 1700
4554 3.5544079826181689 1.0973002731264687 4.7151276785996101 225 226 231 0.86491285731369449 39 5537 40 4991 45 3982 36 5359 34 4550 21 3735
4556 4.802647046373024 1.1015738802414543 4.750605907043826 67 68 61 1.252368751365466 39 5539 45 3998 47 3518 36 4856 33 2022 24 1454
4557 4.7971415174352021 1.0990435546072468 4.7351523865843852 67 68 61 1.0214009814857528 39 5540 45 3999 47 3519 33 2023
4559 4.9593484591962049 1.1995171502498028 4.6831788518041879 84 83 81 1.9283926977028913 41 4477 42 3536 45 4030 47 2704 48 2602 42 3532
4560 6.3856703383246494 1.2927334243077908 4.7778993119814706 96 92 80 0.49347071408439436 40 5042 41 4491 45 4045 51 2696
4561 4.2267553572601493 1.3491581683496561 4.49186941579406 160 158 146 0.70170591313341191 41 3116 45 4052 48 1564
4562 4.2986118809875338 1.3552104570744441 4.4865436573769522 177 170 160 0.33482190742629508 42 4086 44 5257 45 4053 43 2661 47 3588 51 2711
4563 3.9343015314584764 1.362515029934136 4.458646214639197 194 186 175 0.58898453445075583 40 5055 45 4054 47 1555 37 5180 52 1682
4564 5.6751221774653633 1.3590168352904959 4.471988033008933 137 130 120 0.85924245648884112 39 6036 45 4060 33 2329 32 4494
4565 3.619625906231696 1.4006929035977354 4.1907299487030896 211 203 192 0.41524211383533977 40 5063 45 4062 43 2668 49 3043 51 1618
4566 3.6201003180136553 1.4007611424698998 4.1901017745425859 211 203 192 0.38754929837661556 40 5064 45 4063 43 2669
4567 5.1521765614546462 1.4562995025308327 3.6536628991535913 200 190 178 0.86519890748609674 42 3567 44 4701 45 4066 48 3309 49 1838
4568 3.7327699578164029 1.5589907290189287 3.2280285516414304 179 170 158 0.21431448651555252 44 4714 45 4075 47 2775 52 1775
4569 4.0556908232419104 1.57212111796851 3.2230561813472089 186 178 165 0.5499631357406175 44 4718 45 4078 43 2018
4570 -3.4033331194292455 -1.6225424190491158 10.603082830789694 163 141 112 0.43786534278188255 44 5297 45 4123 47 4111
4572 0.65445408550723272 -0.60958965451195624 5.971447586299937 23 26 33 1.3960312454973289 40 5097 42 4136 45 4152 43 3198 48 2780 49 3253 43 1301 44 2669 51 1969
4573 5.5445670230888373 -0.69887738306193825 7.1528295067545624 23 23 21 1.3365018075961679 39 5027 40 4505 41 4553 42 4494 44 5332 45 4161 43 3204 44 5718 48 3780 49 2180 51 1978
4574 4.2814135561584852 -0.38434026127050669 6.2170075007317704 16 19 27 1.6162012135804062 39 6093 40 5114 42 3661 46 3556 45 4183 38 4617 49 4367 51 3484 52 4127
4575 0.06635755050864732 -0.19095734941319609 6.3183852073826401 64 64 72 0.7278038836906543 42 4505 45 4207 43 3232 47 3721
4576 -0.49117723043887701 -0.10734948811515882 5.6403628721145598 236 205 213 0.44792535717868903 44 4855 45 4214 48 3427 46 3997 47 4171 51 3511 52 4149
4577 6.97446638762246 -0.24268778026092727 6.2495027525632629 70 70 69 0.53797153217919924 45 4216 40 5135
4578 -0.017655270451354087 -0.047226878527250105 5.4708335833538584 128 54 79 0.1676658409406791 44 4876 45 4224 48 3447 49 3979 51 3523
4579 0.022631429325316078 -0.050350572967628307 5.4816153598495729 136 48 82 0.3260956097782014 44 5384 45 4225
4580 6.8642684594759134 -0.17738840679936851 6.1418181587567933 7 12 18 0.70367690011132134 39 5708 45 4229 43 3256 47 3731 49 3965 52 4171
4581 -0.5436561908012324 -0.028454051111400227 5.6776121979499248 59 52 50 0.3738991052252148 44 5755 45 4230 43 3257 48 3448 46 4021 47 4557 49 3984 51 2964 52 4652
4582 1.2156746360163098 -0.10982628895493607 7.4371160924580861 42 45 48 1.1941143818032276 41 4094 45 4238 40 4580 44 4085 39 5107
4583 0.85962301099068483 0.014087307923406947 5.1404821485188776 136 49 91 0.37407615743104861 44 4895 46 3607 45 4247 43 3271 42 4192 47 3757 48 3456 51 3533 52 4187
4585 5.6308423121629181 0.020423057603985082 5.0007725388757347 247 146 74 0.80234218709819416 38 3963 44 4930 45 4269 47 3764 48 3459 51 2179 49 692 52 3484 36 5522 34 4644 29 3005
4586 5.7128897518557578 0.14239581055546632 4.0768894260441471 144 54 92 0.18988139560671541 42 3824 45 4310
4588 6.0654415794329584 0.32200471033568806 5.0853289593072581 12 18 22 0.67231898999371442 39 5848 46 3720 45 4355
4590 6.7433117000729172 0.3622008766373952 5.6371056854958574 57 56 54 0.70607664341498544 39 5324 40 4786 41 4288 45 4371 48 3065
4591 1.4519992007333111 0.50141960194740975 5.7464289479648443 57 58 62 1.5838563918842379 44 5044 45 4375 49 4128 52 3660 30 4324 31 4890 29 5540 28 6307 21 4754 24 5658 23 4948 20 3567
4592 5.6376538962863307 0.40124359947311344 5.0694155612279772 3 7 10 1.2484334485546484 41 4753 45 4376 42 3895 43 3372 47 3868 46 3733 48 3561 49 3579 51 3133 52 2725 46 3235 50 1031
4593 6.0779445758503705 0.42792203022928854 4.7905807444249922 17 19 21 0.69772565734582659 41 4329 42 3918 44 5539 45 4395 48 3090 49 2711 51 2427 52 1147
4594 6.3597671505249336 0.42743277575099764 4.7558563101904676 122 122 120 0.191474391395828 42 3925 44 5085 45 4398
4595 5.9579571689117614 0.45277031937753881 4.6439455161948269 134 134 134 0.39514958005557749 40 4860 45 4405 39 5392 47 3349 44 4421 51 3153 52 2760
4596 4.0455486919183086 0.49448581895808574 4.6146949497128018 60 65 69 1.2894544282471976 42 3928 45 4412 44 5092
4597 5.9203932692464356 0.48856643111875803 4.5187868044835167 11 15 18 0.49207011494319852 41 5091 45 4421 48 3118 51 2460 52 2785
4598 5.9206526256531653 0.48877932726779466 4.5196820348033828 11 15 18 0.57184124405135495 41 5092 45 4422 48 3119 52 2786
4599 1.3441123273027415 0.69437570343454003 5.7448460059472204 217 217 207 0.46548202203104266 44 5552 45 4431 49 4158
4600 0.8643061835046858 0.83298774800267383 5.9055238878019072 24 25 27 0.4732930725177088 38 4153 39 5923 40 5319 45 4441
4601 0.97336432769030556 0.89185858985718847 5.7921708427722747 75 75 73 0.66959617428220231 40 4918 46 3793 45 4447
4604 6.0833748377489236 0.72371042516959727 4.39314567277777 37 36 41 1.9183909709339488 42 4003 45 4465 43 2566 41 2968
4605 4.6622490806576629 0.81270569626209788 4.7635185484746367 56 58 56 0.59809828761912731 40 4946 41 4831 45 4471 47 3973 37 5086 34 4475
4606 -0.50188908839818158 1.1042324121509191 6.1573762881567466 135 121 112 0.85672815972686289 42 3998 45 4481 44 4545
4607 0.43192476251657175 1.0911192326793262 6.0291428126286535 182 172 160 0.62822862330741158 42 4697 45 4487 47 4000 51 3746
4610 5.1034119274487661 0.93581384786146682 4.6856720488827213 66 68 67 1.6582773532305155 42 4410 45 4504 47 4003 37 5100 49 4221 30 4100 31 4484 29 4762 26 2604 21 4241 23 4895 20 4201 24 4799 22 2270 15 2866
4611 4.0756966108187731 1.1615898967209259 4.6769127844232168 225 226 228 0.82938791630016628 42 4068 44 5221 45 4542 49 3778 51 3327
4613 2.9292675747800576 -1.2361141195213425 6.2188090335656545 60 61 66 1.2489943580985066 39 6051 41 4908 45 4588 40 5067 42 4114 38 3220 43 2701 47 3631 37 4111 39 79 48 2732 48 3744 49 2082 49 3857 52 3291 36 5750 34 4097 50 1120
4614 1.2915858188725551 -1.0171049989326073 6.2847548819045418 25 28 37 0.94655423576035824 38 4280 44 5296 45 4595 43 3538 51 2846 36 5757
4615 6.3111386182899727 -0.49029556169478372 6.5352911476087501 80 82 86 1.7342762352707166 41 4038 45 4640 47 3699 52 3397
4616 5.7848693792627479 -0.17339890688037363 5.4321641419686149 50 50 48 0.80972664782088122 41 4590 42 4166 44 5745 46 4316 45 4659 43 3585 47 4535 48 3814 49 4384 51 3909 52 4622
4617 -0.20213483103618149 -0.084664709973678101 5.527416932967836 236 218 218 0.27287206332256331 44 5367 45 4666 48 3436 49 3969 51 3514 52 4159
4618 -0.29892277001456458 -0.072299714298364695 5.5674599630683659 136 52 85 0.21671070290022856 44 5376 46 4011 45 4676 43 3246 47 4184 49 4398 48 3831 51 3931 52 4638
4620 2.8501382362661043 0.34887497448989774 7.2744034019107451 9 14 20 1.084045982648842 40 5543 45 4760 43 2960 49 3547
4621 5.7248703477637983 0.39110599608136576 5.0173342692478595 67 70 75 0.56296891927424775 42 4316 45 4777 48 3558 49 4107 51 3622
4622 5.7222830565864875 0.39168531911715404 5.0108272037394324 67 70 75 0.63531953367342275 42 4317 45 4778 48 3559 49 4108 51 3623 35 1523
4623 1.0365917159840758 0.52795748801613129 5.8458868825537929 64 64 64 1.1415370240655509 40 5580 45 4780 48 3579 51 3653
4624 0.48836506594377899 0.65684307025732036 6.008310408010531 5 4 12 0.33409601489692625 40 5295 45 4803 48 3966
4625 2.3898271918745038 0.79019947244086064 5.2793393063524592 241 243 242 0.75914004863954276 32 4848 46 4168 45 4835 47 4379 37 5697 48 3993 49 4552 51 3700 52 4813 36 5940 34 5272 30 4494 31 4911 33 2908 24 5949 21 5335 22 4032 23 6044 19 4780 18 3705 17 5005 15 4047 16 4666 14 3335 11 3680 9 3106 13 3661 12 3287 10 2859 3 3216 4 3564 7 3140 8 3514 2 3725 2 4169
4626 1.0505348692753169 0.89993176860882673 6.1200214686941177 13 14 18 0.79644545687669799 44 5575 45 4836 42 4364 48 3630 51 3232 52 2873 50 345
4628 5.1999876697791292 0.90684724143808371 4.6580318367709808 65 67 64 0.54102061354687758 39 6359 40 5678 45 4887 43 3468 47 4425 48 4038 49 4591 41 4845 51 3744 52 4430
4630 5.240309102503681 1.446525193478801 3.8399361131973446 200 191 176 0.64902576124303024 44 5682 45 4932 43 3520
4631 3.1171639832544669 1.5474089224143834 3.2535406913614962 179 171 158 0.67943580207448739 44 5969 45 4933 51 3818
4632 2.2724206069345554 -0.43395177241736327 7.8559734934549388 35 42 50 1.4588036691514739 38 4615 39 6451 41 4936 44 5728 45 4986 49 4370 52 4611 30 4192
4633 2.2724206069345554 -0.43395177241736327 7.8559734934549388 35 42 50 1.4588036691514739 38 4616 39 6452 41 4937 44 5729 45 4987 49 4371 52 4612 30 4193
4634 5.0601976574617753 -0.14505023798308639 5.6885094362016462 56 56 63 1.7002986438432237 40 5775 41 4965 42 4526 45 5004 42 4792 47 4778 49 4934 51 4254 30 4395 31 4278
4635 1.3246910648472052 0.060673340893755832 6.3775162705027393 2 2 10 1.9304916708440036 45 5041 43 3630 47 4586 46 4352 48 4173 49 4973
4636 1.3083397582818248 0.13999002167201724 6.3974825599084628 7 7 15 0.31354575583513383 44 5800 46 4360 45 5052 43 3642
4637 4.2654661032544157 0.13014202185675822 4.1686751166135787 205 186 197 0.24157403105114472 40 5844 41 5290 45 5055 49 4744 51 4298
4638 5.8722185410456147 0.13906685669717284 4.0351528134612131 255 227 243 0.42434513368614063 44 6068 46 4371 45 5067 47 4602 48 4187 49 4753 51 4306 52 5031
4640 1.4341484641603155 0.25442343452636912 5.7267885371222738 44 43 48 0.74850503459359052 41 4675 46 4390 45 5074 43 3321 47 4621 48 4217 49 4781 36 6075
4641 2.5725537945720753 0.40085290171936705 6.541759645586315 6 11 15 1.532093084046205 44 6088 46 4412 45 5090 43 3957
4642 3.3354310497978403 0.44116350574828139 5.3506300206277855 209 214 207 1.1494849818449819 38 4738 46 4115 45 5104 47 4315
4643 5.1487057369540441 0.42823922187462465 4.6151865586015024 208 213 207 0.19173207303445416 42 4894 44 5860 46 4421 45 5110 41 5331 44 6106 40 5898 43 3972 47 4651 48 4246 49 4815 51 4056 52 4768
4644 4.9623046544473839 0.46336310267734537 4.6920397605745725 7 11 14 1.0946657117669774 42 4642 44 5863 45 5117 43 3709 40 5593 49 4501 47 4658 40 5904
4645 1.3248967349078451 0.63939592915357246 5.7348568095942696 60 61 56 1.4263872775274802 38 4755 39 6579 45 5119 47 4663 37 5669 37 5872 52 4788
4646 4.7242368429310639 0.70279689023106928 4.7459742961120908 206 209 196 0.5084068833560399 41 5367 45 5139 29 5689 27 3563
4647 2.3765958597458838 0.8509879817955377 5.2417126997988026 233 234 239 0.7833550799679081 32 4868 46 4188 45 5153 47 4391 37 5717 48 4007 49 4569 51 4114 52 4829 36 6131 34 5290 30 4507 31 5050 33 3061 14 3355 9 2827 13 3378 3 2798 4 3103 7 3171 8 3534 2 3749
4648 0.29504031150406135 1.0354920421104907 6.3963127376915958 148 139 130 1.0542819794473515 40 5936 41 5368 42 4930 45 5160 39 6326 47 4403 48 3652 49 4581 51 4135 52 4417
4649 1.9892926264270845 -1.0662594957966511 7.9103895143086076 130 136 128 1.3038218407293076 40 5749 44 5984 45 5224 39 6071 44 5707 34 5146
4650 5.8738683152653479 0.14249634659538313 3.970431814407402 234 214 228 0.51609416735509073 44 6250 46 4372 45 5294 48 4411 49 4977
4651 2.1228502632491271 0.31275708038482308 7.1122570768804794 81 83 70 1.0551557457485821 41 5497 42 5049 44 6070 46 4608 45 5300 38 5078 39 6910 40 6224 43 3945 47 4629 48 4224 49 4792 52 4743 50 1181
4652 1.6587076095888573 0.32269193604844415 5.6547921475931453 58 62 65 1.2084507906681448 41 5653 42 5054 45 5301 35 1866
4653 0.58779648376653915 0.35626539737871843 5.923165576237639 68 69 68 0.7379095491117228 39 6760 40 6081 45 5302 47 4841 48 4428 49 4998 52 5272
4654 4.5059909929483748 0.4402464973930198 4.7873567724616164 129 131 125 1.4417417707972473 39 6784 45 5323 43 3967 47 4319 37 6007 40 5589 45 5108 51 4354 52 5075 36 6247 34 5243
4655 1.1831224894336498 0.54712278159966454 5.775383528302557 221 223 212 0.74552549673295421 44 6099 45 5325 48 4449 51 4363 52 5084
4656 4.1367090763104191 0.46836526731740935 4.9509191224251436 79 82 87 0.58222243826537212 42 5072 44 6282 45 5327 50 1198
4657 4.6241244731093882 1.2746283208604874 4.8886879908089567 87 87 79 1.843695130650876 40 6155 45 5365 49 4621 51 4168 52 4888 34 5441
4658 3.0679523503505233 1.3547763881133548 4.6649822858508854 118 117 115 0.83288781813422441 44 6327 45 5369 48 4328
4659 2.4329317355203033 -1.2809245746222393 7.7035754306373292 134 141 134 1.3351455092934623 39 6975 45 5381 49 5208 34 5556
4660 5.7024949589819611 -0.19488073738953707 5.3091254343421221 167 167 157 0.84792486765767572 39 6880 45 5404 43 4070 36 6187 34 5332 35 1828 50 1618
4661 2.2219334013056833 0.058363198947882965 4.7102778150724642 241 213 228 0.83468186748151452 44 6372 46 4743 45 5424 42 5165 38 5175 39 7001 43 4218 47 4954 37 6093 48 4543 49 5122 51 4647 52 5235 36 6345
4662 1.2493635985164233 0.1771437438059898 5.7132016565122674 73 73 75 0.78289054082069787 39 6903 40 6054 45 5439 52 5255
4663 2.7741967467017994 0.27452176047050986 7.1364618772589106 4 9 15 0.65821378408387454 42 5046 46 4766 45 5453 41 5496 43 4111 52 5267
4665 1.3269562586404067 0.48733008203310246 5.7541124505356169 52 55 48 0.58265390244599613 44 6097 46 4775 45 5465 47 4989 48 4568 49 5156 51 4679 35 1984
4666 3.2098389167624397 0.74571573496084365 5.1098843423556515 71 73 67 1.9815948340323184 38 5118 46 4791 45 5490 43 4143 47 5013 50 1525
4667 3.2072445293317307 0.74796295452076411 5.1356816260236231 71 73 67 1.6878364370673786 38 5119 46 4792 45 5491 43 4144 47 5014
4668 6.1781240897016598 0.70099205335502501 5.2043042362182135 27 31 34 0.83920210680749197 44 6424 46 4900 45 5492 47 5121 49 5168
4669 6.0895901780660289 1.3128908004279161 4.6859073845040955 94 90 79 1.1129183550159298 44 6456 45 5510 49 5069 52 5347 50 1567
4671 1.5841720087951445 -0.75276177281680967 7.2844215010149149 7 14 24 1.5698777483146613 38 5159 40 6297 41 5738 44 6345 45 5525 37 6174 34 5567 32 5151
4672 1.4072092545922346 -0.63783668845126162 8.1445803127254894 4 10 20 1.1115030597407818 40 6299 41 5742 44 6470 45 5530 37 6182 49 5219 52 5524 36 6415 34 5570 32 5154 30 4884 31 5265 29 5947 27 3821 28 6715 33 3203 35 2049 50 1748
4674 3.7726946302478841 0.52074983962445842 5.0781446525464098 51 56 62 1.942549383448914 39 7036 46 4884 45 5576
4675 6.3537935186354595 1.1106507474664313 4.9162862244307313 35 37 35 1.2972477147661723 42 4964 46 4915 45 5608 47 5134 48 4603 49 5193 51 4807
4677 1.4051380269599916 0.12249617484579176 6.7713364449026434 13 17 26 2.0266040692896423 41 5757 42 5285 44 6486 45 5651 43 4321
4678 1.8029087165965598 0.12090194410758659 5.9528404052772972 7 11 21 1.9606337015678654 42 5287 44 6487 45 5652 41 5758 47 5161 46 4953
4681 2.7270586647356883 0.88743381665042331 5.0988423198276651 189 190 201 0.61427528977454715 42 5325 45 5689 50 1788
4682 2.7270586647356883 0.88743381665042331 5.0988423198276651 189 190 201 0.61427528977454715 42 5326 45 5690 50 1789
4684 2.9570882272261638 -0.23793188642847793 8.028080943418793 34 39 48 2.3530442564000085 44 6558 45 5721 39 7149 40 6399 41 5838 42 5357 43 4387 47 5270 48 4828 52 5673 51 4910 46 5064 50 1898
4685 -3.3811756553856696 0.22758686542398851 10.804072842240046 45 44 50 0.54075176306282591 44 6491 52 5617 49 5319 51 4862
4686 6.1391285408657632 1.1008513898460623 4.9970478254913653 19 24 27 1.6971866590299243 44 6593 46 5048 45 5764 43 4429
4687 6.1391285408657632 1.1008513898460623 4.9970478254913653 19 24 27 1.6971866590299243 44 6594 46 5049 45 5765 43 4430
4688 -0.26889715122654412 1.1906014708259849 5.5457083579712583 213 203 191 1.5102948654771911 44 6633 46 5041 45 5796 43 4469
4689 5.5135139659795707 -0.006912065152815559 5.2040509025876593 45 41 39 2.1798922610754827 44 5424 40 5174 39 6156 45 4709 42 4556 38 4667 43 2874 47 3099 51 3953 27 3132 28 6003 26 3060 35 1502
4691 2.1415897878533956 0.068639326093401884 4.7063706299610386 145 118 129 0.47788616491139496 46 669 42 526 45 746 32 3462 41 2372 43 381 31 3415 29 4595
4693 5.9825021903375175 0.39248889260044301 4.858325464750977 10 10 14 1.0030845760257416 41 4754 44 5061 45 3826 46 1268 42 2533 41 2792 44 3394 40 4143 39 3623 38 2974 43 2461 51 1142 51 3131 47 3865
4695 5.0786315728946789 0.13575336383036771 4.1208828039151504 151 121 136 0.25717953984070979 44 1159 39 1324 45 969 40 1191 42 849 41 936 43 617 48 802
4696 4.8659608446979767 0.73615553624067698 4.7507155842442383 54 55 50 0.28158564665188118 42 1435 38 2274 45 1652 40 3371 41 2940 39 3811
4697 6.1715701260101898 0.12925025170993545 3.9613450313032161 254 221 237 0.30569761164091203 46 908 40 3010 45 1022 42 909 41 988 49 889 39 3412 51 757
4698 6.9998256558606862 -0.063307273120630933 6.0838310246290597 28 29 28 0.77764385491417265 41 3413 42 3060 39 4322 38 2667 45 4258 46 3615 40 4626 44 5423 47 4217 37 4269 48 2896 49 3391 46 3058 51 2969 52 3478 36 4427
4699 6.5698006349968852 -0.28294721054075395 6.2138611980561524 43 46 52 0.5351735181517181 41 4068 42 3692 44 4852 40 4561 45 2432 42 2957 39 2892 48 1943 52 343 36 4381
4700 1.1233689209918982 0.71998154342093534 5.7967404733949612 57 55 52 0.55588945462796935 44 4455 40 4216 39 5410 38 3680 45 3020 45 3884 46 3311 44 5110 40 4874 43 2510 48 2453 48 3155 49 2816 49 3650 51 2507 51 3207 52 2831
4702 5.0980498369197784 0.52409185957124416 4.6672048231949441 66 68 64 0.38275451296993912 41 2872 39 4746 45 2995 46 2528 44 3456 38 3045 47 2530 49 2773 51 1245
4703 4.533540639908356 0.13683712602142772 4.1366476019168754 101 45 69 0.60364215946847155 32 2694 46 2245 42 3180 41 3528 39 4465 40 3989 45 2705 42 2287 46 841 44 3129 47 2210 51 773 52 729 36 3822 34 3038 38 2830 30 2402 31 2515
4705 5.4436999005727511 0.70042389153020912 4.5517875820580214 35 33 26 0.36166466236488964 42 2664 40 3375 39 4800 45 3084 46 2585 41 2943 37 3921 48 2479 51 2536 36 4114
4706 5.8898073096210286 -0.26826752265891746 5.4848633840681149 227 223 214 1.2697455426174702 41 5897 42 5419 44 6610 40 6468 46 5005 39 7148 38 5338 45 5720 41 5836 42 5356 44 6557 43 4386 47 5223 37 6257 48 4715 48 4777 49 5304 49 5373 51 4848 51 4907 52 5606 35 2129 50 1834 52 5526
4707 4.1520466876497304 0.12186808033095728 4.1868750037299449 142 39 78 0.35342288522337167 46 3090 38 3475 45 3691 41 4182 44 4191 39 5219 42 3791 44 4950 43 2297 47 3150 37 4930 49 2469 48 2156 51 2217 52 2500 36 4582 34 3801 32 3363
4708 3.1282740740139148 1.1281466643606084 4.8079355640462058 14 19 20 1.3103025601189289 32 4503 44 4603 45 3985 42 4729 46 4495 41 5162 44 5638 40 5691 39 5989 32 4706 45 4901 43 3807 47 3516 37 5143 48 3254 48 3686 49 4609 51 3304 52 3836 52 4457 36 4899 34 4871 34 5127 30 4147 30 4358 31 4542 31 4752 29 5191 27 3067 27 3296 33 2765 26 2986 22 3283 24 5728 21 4379 23 5052 19 4207 20 4308 18 3466 24 5994 17 3800 15 3465 16 3106 16 3865 14 2558 14 3039 11 2317 9 2435 13 2980 25 2016 25 2218 12 2229 10 1038 10 2614 1 1526 3 1177 4 1260 7 1403 8 1380 2 1420
4709 0.87981829345418927 0.24996801470564642 5.8082846174993108 75 72 69 1.152372316521852 46 4387 42 4580 41 5015 44 5819 38 4694 45 5072 46 4601 42 4852 44 6065 40 5841 39 6521 39 6750 40 6065 38 4913 43 3657 47 4618 48 4214 48 4421 49 4779 51 4329 52 5046
4710 1.3776520032530795 -1.4513226575329143 6.9046977315061655 91 92 96 1.6052473255990722 46 2831 44 4735 40 5066 39 6047 38 3844 45 4583 46 4511 42 4760 41 5194 39 6420 46 4276 42 4468 41 4905 43 2697 43 3527 47 2866 47 3627 47 4482 37 5516 48 2726 48 4090 49 3187 51 2827 52 3287 52 4042 52 4936 36 5419
4711 3.136884153906438 -0.12976855836283935 6.4823224393587324 191 192 188 1.419253109014218 46 4323 42 4527 41 4962 44 5390 40 5464 39 6110 38 4634 45 4682 32 4925 41 5233 43 3594 47 4551 37 5554 48 4139 49 4399 51 3933 52 4645 36 6023 37 5791 34 5167
4712 5.8126696416390562 0.75865887379255081 4.3585263962220724 97 96 91 1.3597630144306596 32 4072 46 3356 42 3471 41 4413 44 5161 40 3419 46 2625 39 4845 39 5493 38 3733 45 4867 41 5146 44 5610 43 3086 47 3967 37 3951 48 1404 49 2865 51 1394 36 4145 34 4003 30 4081 31 2847 31 4115
4713 3.238905681572283 0.8604304165692459 4.5660586655770725 139 140 138 1.0289467249892239 44 5614 45 4874 46 3827 43 3450 47 4412 48 3653 49 4207 51 3732 52 4418
4714 5.1943760893486797 0.90200420806136872 4.6404162205181541 70 70 66 1.3701423571122728 42 4408 44 5625 39 6358 38 4553 45 4886 46 4216 40 5677 43 3467 47 4424 37 5463 48 4037 49 4590 36 5702 33 2535 27 2998 21 4723 26 2907
4720 3.2091296633368853 0.27626937137387436 4.7875176703834814 4 7 16 2.4156471516219589 44 6394 45 5564 43 4238
4723 2.0368135362397202 -0.70060690336634512 2.4657588285648302 140 118 97 2.1758512521873934 41 1988 43 25
4724 2.0368135362397202 -0.70060690336634512 2.4657588285648302 140 118 97 2.1758512521873934 41 1989 43 26
4725 1.469058391202051 -1.3520017558068465 6.6859138212102946 82 82 92 1.0949420897943869 38 37 43 41 40 62
4726 1.0769499117665735 -1.1327109796910135 6.3055501467490371 110 115 121 1.7564403748863624 38 52 39 2680 40 2360 41 2013 43 68 42 1793
4727 4.0771827999756347 -0.97980027476511822 5.8938307133094039 63 68 65 1.2507774047712106 38 2471 39 2722 40 2389 45 138 46 1843 43 78 41 3201 42 2855 47 123 48 1831 49 188 51 142 52 2143
4728 3.639876749038975 -0.61075941262969025 7.6279558882217335 45 54 61 1.3702297745160021 44 380 43 158 38 158 46 273 48 289
4729 0.59936574965215794 -0.14019608748109516 5.8828190905590674 124 125 129 0.58670362566062073 46 383 43 207 49 524 47 2015 48 394 51 432 52 387
4730 0.5983136789754594 -0.13938970126145628 5.8862336331408596 124 125 129 0.61152683837796884 46 384 43 208 49 525 48 395 51 433
4731 5.8481464724320196 -0.14883753745489844 5.302332087421699 158 153 150 0.67416738257615028 39 564 43 235 36 375 34 340
4732 1.9256711638937332 -0.1544542291494522 7.2410985116035604 26 30 41 0.43534089203471749 39 2921 43 237 40 2576 41 327 36 3519 34 1742
4734 1.4048189320866158 -0.08835861759123248 7.0182835251621043 20 25 29 1.0729379140600193 41 366 44 2889 43 283 38 3349 40 4584 42 2995 41 4097 34 4953
4736 2.2017469864296677 0.038874542996877232 4.7024841436817368 149 62 101 1.4873628813869322 42 2063 45 687 43 339 36 726 37 616 30 3062 22 2625 18 1601 25 1038
4739 2.42678999342457 0.048251550290698247 4.6054757572095273 157 84 114 0.57778700271054872 32 3399 41 537 43 356 42 485 30 3057 29 3923 27 1056
4744 2.5674531181293214 0.066511800254447154 4.5530507219561587 254 217 234 0.11052681741395289 41 587 42 546 43 393
4745 2.6214081151138746 0.068485220677611064 4.5333275675716802 250 210 234 0.13933403322282217 41 2386 44 837 43 397 42 2115 17 617
4746 2.8303155938639009 0.066779385580469072 4.455459189144066 138 77 105 0.58033099142535172 32 3392 41 2395 42 549 43 398 20 727
4747 2.8294064236668621 0.066412055209781481 4.4572181530795092 138 77 105 0.89305878743409406 32 3393 41 2396 43 399 31 3331 20 728
4748 2.4924477237209373 0.073567619279506558 4.5870734940113858 123 81 98 0.27679134257539634 38 1725 43 403 37 3567 34 3076 34 3814
4750 2.3203876771784167 0.074323229124033857 4.637266702813311 242 193 215 0.73417501333235247 41 2385 43 409 29 3966
4751 2.206701790252573 0.080413565927380581 4.6931881613824569 134 63 95 0.72371931644019138 41 594 43 411 25 1387
4752 2.3023553896272313 0.078199030085818411 4.5879652199552075 145 78 109 0.26801072427021932 41 2394 43 412
4756 2.6250021957336025 0.079012485973822558 4.5399649111519178 136 103 118 0.76150940600160666 32 2820 43 420 31 2644 29 3260 33 1548 26 1627 22 1370 18 432 25 674
4757 2.8532490695406456 0.073623609938742368 4.4451146118666029 118 64 87 0.38414618436299663 41 2417 42 578 43 422 17 589
4758 2.4887965296307262 0.08344080125319446 4.59134120491104 254 208 229 0.28174750550558592 38 1751 43 426 47 632 48 642 41 2421 42 2142 20 855
4759 2.8508742228272461 0.079642312157541181 4.5059832772614756 250 220 237 0.35044494645738661 41 641 42 592 43 429
4760 2.4749602849492338 0.086618605829747883 4.5921424058519555 139 72 103 0.28448599200753294 41 631 43 430 22 2086 17 704
4762 3.3958582158149455 0.082102029678764968 4.2604691880431877 151 50 95 0.47847805265436444 40 2795 44 900 43 444 34 3017
4763 2.891976583426064 0.08962939095470869 4.4269704210231531 125 102 114 0.31916540115511538 32 2807 43 446
4764 2.7857496375896496 0.094169664119733015 4.4740203914941574 251 211 233 0.75295890631838003 46 715 43 447 47 642 48 656 52 636 28 3651 34 3125 24 3735 23 2653 20 2246 17 626
4765 2.7879985737319881 0.093782066024160421 4.4737353644603388 251 211 233 0.53826364175575325 32 3448 43 448 52 637 31 3375 24 3736 20 2247 17 627
4766 2.8089553832565941 0.094742684814915101 4.4786462252478128 255 202 229 0.19099585321499665 41 675 42 622 43 449
4767 2.8285484890675887 0.093762837972351937 4.4586017536512399 250 208 227 0.51115187626450376 42 623 43 451 41 2433 31 3367 32 3441
4768 2.9527688139701103 0.093185399338906447 4.4759636935277873 128 86 98 0.3701796329939217 40 2791 43 453
4769 2.8584219982503627 0.09947710061473708 4.4774421665322377 247 203 224 0.091180519041522051 46 727 43 465
4770 2.9557884234839511 0.10194457696952373 4.4105370444437915 252 202 227 0.47327390676214814 38 1793 43 468 24 2543
4771 3.3865938758842118 0.098650558902215704 4.3429489390090721 151 89 112 0.41193623540063251 41 712 43 471
4772 3.3892244737085577 0.097889520214865147 4.2364108995365806 151 89 112 0.73753441478445825 38 1805 45 814 43 472 37 3589
4773 1.3315425102940392 0.1186476907996868 6.4344656716272333 63 68 76 0.055199618782991178 46 798 43 481 49 999
4774 4.066151832107149 0.10292055417640715 4.1360762365922721 140 45 85 0.80501606767900868 40 981 43 490 41 757
4775 3.3789674988433904 0.11861919889539571 4.2644478772462246 250 211 225 0.5852110398489393 32 1894 41 749 42 685 43 495
4777 2.3417638717126166 0.13947193845908956 7.1243239404179048 5 14 19 0.63073066366966823 32 2693 45 924 43 538
4778 4.3425770704311182 0.12326873021220341 4.1724644360087595 111 64 84 0.27293379433743442 41 2512 42 2234 44 3080 46 793 43 542 47 707 37 3627 40 2878 48 726 49 834 36 3804
4780 4.1096157813232477 0.14163808400762443 4.2030074247379261 114 54 79 0.58874906075610256 38 1892 43 575 47 776
4781 4.693635357129577 0.14444937956201268 4.1246058592617088 117 77 95 0.27963669687413178 32 650 42 846 43 615
4782 2.8394930941938061 0.29619702906411238 6.9504329979435786 3 8 14 0.80495209572645476 38 1919 39 1306 43 732 37 2718
4783 2.1387242805354578 0.32216014347373856 6.6818722813472506 88 88 79 0.30960155972963882 42 974 43 735 44 1311
4784 2.8369944181214244 0.32451060724608005 7.0707505829759594 29 36 42 0.81962485154711417 38 2855 41 1029 43 737
4785 2.5723177395246903 0.40261885239284434 7.3348974882262361 66 48 10 0.32667965886824024 40 1337 42 1016 43 760 39 1450 36 2803
4786 4.8527933027554582 0.34306993730541124 4.7178229888997185 68 69 68 0.29489953023090104 38 2948 43 789 51 1085
4787 1.0170379925561528 0.55942748984378821 5.8450359624194794 75 75 75 0.37220882573062175 46 1321 43 839 48 1227 49 1387 51 1232
4789 1.0918852502928291 0.6135570422662151 5.7797488160187394 97 97 95 0.72583560234594147 39 3659 43 867 49 2790 46 2519 52 1232
4790 1.1518073124861132 0.68110505599850824 5.7834124780656655 98 98 97 0.16201607425124864 40 1682 43 908 39 1886
4791 3.3102115292167209 0.59803483468524965 5.0074382975265497 60 66 70 1.8071247199831262 41 1435 44 1747 43 918 42 1330
4792 3.3268197888703255 0.70563396185326022 5.2033533472039952 247 248 243 1.0378037230956134 38 2253 45 1597 46 1471 47 1279
4794 0.83339590235147021 0.88929254721062223 5.7582961950521181 74 73 71 1.9477786333763814 46 1516 43 962 48 1393
4795 1.0734803024278614 0.92244682739314632 5.8969724829897512 56 57 59 0.51522823865819811 42 1411 44 1877 43 973
4796 3.3190214017184489 0.78926138381701272 5.0023216056558288 114 110 107 1.7854756117791863 38 1131 43 976
4797 3.5280579576163875 0.80641754520691833 5.0454382136525808 41 42 43 0.61425589824251081 40 3372 41 2941 43 983 48 1385
4798 3.3352717105001735 0.79548328239771104 4.7167516714843138 89 88 101 1.3239477407262097 41 1590 43 991
4799 2.7755841587411747 0.92714663102913875 5.1582699085121471 65 66 70 0.75717782376042475 40 3412 43 1005 47 2627 36 3184
4800 4.1261356899389101 0.87712614330188943 4.4886225018680097 216 216 224 0.39832921302074897 42 1509 43 1015
4801 3.1213906197621424 1.083102919264582 4.890019497340953 237 242 246 0.53737544935291515 42 2743 43 1043 48 1487
4802 3.4346531335608868 1.1174174489163045 4.9139159648943256 217 221 224 0.65573735459999272 46 1641 43 1066
4803 3.4363415634000245 1.1363078780739517 4.7084716792071823 223 227 231 0.029518056289005848 42 1628 43 1083
4804 3.2865819718231268 1.3785889562295093 4.430634761757692 214 207 199 0.057982007575954425 42 1721 43 1160 41 1891
4806 4.0935705584699047 1.5427039740659061 3.3698131888392413 219 211 198 0.67968887881802853 44 2440 43 1185 48 1620 47 1620
4807 -3.3257108688560626 -2.0689255649972598 10.807265981085889 132 116 104 0.39340313370026658 42 18 46 85 43 1240 47 90 48 123 51 112 52 103
4808 -3.7265626806763681 -0.8172694036085596 10.614975690224592 179 178 169 0.77598637510185042 44 2701 45 3497 43 1326 51 2019 52 3394 46 3552 48 3397
4809 3.2188714333144519 -0.2053624257007457 6.4157806494703973 39 44 48 1.3324403825377937 41 2179 46 2029 43 1376 38 1510 40 391 47 369 37 3406 49 509 51 414 36 3486
4810 3.6970127532095018 -0.20651502068213465 6.3006907956587392 172 178 178 1.2648945643262497 38 1515 43 1377 47 368
4812 1.0284394709239757 -0.099028554773041066 7.0495182540289205 11 12 17 0.66169675172636311 41 2227 42 301 43 1413 37 4268 34 3691
4814 2.0792457376616982 0.033814056797707194 4.7436912040319283 149 66 101 0.77091213375225454 42 2054 46 580 43 1461 41 2330 30 3066 18 1608 19 2827 25 1378
4816 2.2310847090037083 0.039881627869448204 4.687249815482847 150 72 105 0.53144760919840461 42 2065 43 1467 30 3063 22 2622 18 1600 9 467 25 1370
4817 2.4926743862152354 0.053729660360885757 4.5820733218601815 136 53 87 0.41539360006304482 41 2360 42 2088 43 1474 30 3599
4819 2.5576778882806397 0.060376019994979463 4.5619105548559151 130 51 83 0.73723329643759838 41 2374 43 1480 31 3973 30 3602 29 4550 27 2039 18 1585
4820 2.2762365034769547 0.071161761455501585 4.6601889184959635 255 217 237 0.26098152538972685 46 2167 43 1489 45 2611 31 4000 29 4579
4822 2.3697922032294887 0.085427303193546994 4.6184184525797294 141 64 98 0.33152209918894754 41 2420 42 2141 43 1516 31 3418 49 756 29 4598
4824 3.4051731944215256 0.083482375449956112 4.2995107689338452 155 56 97 0.31185049444698604 40 3912 43 1523 39 4382 41 2438
4825 0.099666907856369891 0.10631919696357919 6.1837979612636511 67 66 62 1.7311646925926216 42 525 43 1525
4826 2.7363171412797769 0.10136222365438249 4.4907032121635497 139 53 92 0.24691882850760316 41 2437 42 2168 43 1533 13 538 20 2267
4827 3.4088222703922377 0.12943029515313095 4.2882286633347579 166 56 103 1.8388536386110794 41 3479 43 1561 49 2485 47 2182 34 3143
4829 0.68084202634629054 0.18930762284506239 5.8716523288086773 56 57 59 1.2830193092268389 40 3921 41 3468 42 3138 43 1580 47 880
4832 1.4616343676689296 0.22154786061151255 5.9427539613433513 42 44 50 0.34462505202781835 38 3471 43 1666 40 4690 37 4952
4833 1.811290657602445 0.21550803986866016 6.2643123963917589 56 58 53 1.0770729363167324 38 2767 43 1670 41 3490 42 2258
4834 1.4159556218362206 0.25488356495844838 5.7527260184222753 37 38 40 0.66344814102878391 46 2322 43 1696 48 2270 49 1095 45 1123 51 974 52 2604 34 3883
4835 1.8859723976240772 0.34991091303062105 5.4369894485238897 108 111 116 0.6584523386110096 42 3246 43 1731 36 2913 34 2334
4836 2.4036614211017118 0.39290247389329541 6.2005758237259627 170 168 140 0.75761334401862268 42 4286 43 1758 40 5558 41 5053 38 4939 39 6549 41 4717
4837 5.0260359066393772 0.33337628938215319 4.6952157286924425 71 72 71 0.31142553139307833 39 4613 43 1772 48 1069 47 1007
4838 1.8292376806289763 0.45250108227090752 6.1536363131153617 242 247 247 0.87685168257868717 41 2713 43 1775 42 2450
4839 5.0129511185819986 0.34875138868911398 4.6854390832009871 38 40 39 0.46578717448300655 40 3168 43 1780 48 1087 51 1088
4840 0.96335518330487202 0.51668271461266779 5.8232546854163134 157 157 157 0.1906683394752762 41 3654 42 3293 43 1801
4843 3.2294059548225382 0.67602437556111927 5.169151953698095 120 116 104 1.3660524207705409 38 3066 43 1899
4845 0.82037986541938657 0.97870084729650653 5.9821091587085826 89 88 86 1.3150796882171114 46 1549 43 1920 26 2675 28 5066 24 5429 21 4834 38 3099 40 4277 19 3845 20 4357 18 3121 16 3912
4846 4.1034601446537087 0.86875335913339502 4.4081908956475946 112 110 124 0.66886135036404837 40 3442 43 1938
4847 4.7039070584147842 0.94979883439823742 4.4822273489788511 87 87 77 1.2489360921003059 38 2346 46 2662 43 1944 39 4874 49 1667
4848 3.8134651946729141 1.1290852673335923 4.6195717775320562 238 240 239 1.1016459896644504 32 4159 42 2770 43 1967 47 2683 51 2657 36 4896 31 4197 29 4827 27 2710 33 2328 26 2655 22 2856 24 4898 17 2905 18 2572 16 1738 14 1232 13 1129 25 1767
4849 4.331101157566331 1.2867789488934411 5.3348131004380077 71 71 71 1.0275967021898822 41 3048 43 1974
4850 4.1668630399815543 1.3621401891774041 4.4606021380617289 158 156 144 0.6993460696265581 38 4262 43 1996 49 1804 36 5410
4851 3.2952706331289319 1.3667646487714615 4.353810000138286 164 158 145 0.59722970887638349 45 3254 46 1707 43 1997 47 1560 48 1575 51 1608 52 1680
4852 3.7713378146546899 1.5299900116669007 3.4235203681152084 226 216 204 0.61584395552478155 44 3815 45 2053 43 2010 48 1614 49 1847 51 1663 52 1746
4853 0.94542831265528982 -0.79414367095799454 6.2311777779541924 21 29 33 1.5123509427554422 38 3253 40 4474 41 4534 42 2869 43 2082 48 1856 49 291 51 208 52 186 44 2639 49 3896 50 1131
4854 0.22350366708401145 -0.56859682685268476 6.1911444293523905 79 72 70 0.58199190194705974 42 2887 43 2101 41 3244
4855 5.2958708771474221 -0.52346348001092491 5.6947267583465839 84 86 85 1.3985391924829305 38 2515 41 3258 44 3954 43 2114 42 2901 46 237 45 326 47 1921 51 269 51 1985 52 2232 50 469
4856 0.51073845920890482 -0.39611209063561481 5.9613780074625167 92 95 100 0.4389172039328802 45 3501 46 2924 43 2125 47 2980 51 295
4858 -0.51984585150617291 -0.12619623959784432 5.6108860629513604 166 150 142 0.58626309179832481 45 2447 46 2024 43 2163 47 371 49 2311 51 427 52 383
4859 5.3024490276499705 -0.15502586104919872 6.3723455363047146 30 40 42 0.63345615062462313 40 4593 44 4083 46 2077 43 2205 42 1973 41 4102 47 2045 48 2862 49 3349 51 2944 52 2382
4860 1.0125466037989665 -0.010662983447521909 5.142197287218595 249 210 228 0.58561380095609128 46 3028 43 2221 47 3087 9 2250
4861 1.3171579962254703 0.037254246880746023 4.9341195858869362 138 52 91 0.40172620272629489 41 3390 43 2243
4864 2.1771292702334812 0.076681931499132758 4.7001125160851922 141 56 95 0.68889920783449465 41 3421 42 3077 43 2268 27 2542 25 1666
4865 3.3791316026252125 0.091287285573708771 4.2532648763569094 152 63 95 0.29723438614592318 32 3929 43 2283 52 2471
4866 3.4051412081436605 0.12960032537001956 4.2381539000535078 168 56 102 1.0005640924491435 38 3473 43 2296
4867 1.7069438123994698 0.20637084510803788 6.4961896545235396 45 12 5 0.36645878811905203 42 3156 43 2327 38 3452 40 4680 41 3483 39 5207 37 4393 36 4592
4868 4.8557649453166487 0.14773689002776982 4.1069732318988823 230 188 208 0.31157253067992019 32 3340 43 2328 52 2533
4869 1.585698529363083 0.23678331183030912 5.8749446593993087 64 67 72 0.47496280560003806 40 4699 43 2342 47 2311
4870 1.1745298791212053 0.25244258406728026 5.808068454978355 31 31 33 2.1373820319736097 43 2348 37 4442 26 2893
4871 0.90992908782140858 0.2686933277717366 5.7902756745991448 63 62 60 1.1504409265926896 40 4709 43 2349 42 3819 41 4209
4875 1.2561489251900391 0.31847192066394647 5.7892364726757402 47 48 46 1.549391238965635 42 3837 43 2384 47 3260 49 3531 52 4276 19 4123 20 4203 16 4609 7 1080
4876 0.086909042848506521 0.3716583309263124 6.2335703260438065 142 136 131 0.20984223661399037 46 3189 43 2387 47 3846 48 3042 49 4093 51 3614 52 3619 51 3105
4877 1.9818942676529963 0.33771379210453939 5.8657237637532882 62 66 69 0.83047919810983362 38 4057 43 2392 39 5826 40 4742 47 975
4878 0.85107768167756948 0.54764065740499879 5.8580629316810482 67 66 64 0.17773406018925314 38 3616 39 4647 43 2462 52 2766
4879 4.8073529411955125 0.42305311345758062 4.6798490737257463 72 72 70 0.73453758481849096 32 3531 43 2467 47 3323 52 1129 29 4023 23 2752
4880 4.7565397044791702 0.45302902391713135 4.7024485140620724 40 40 38 0.41961849707111576 41 3706 43 2474 48 2384 29 4042
4882 1.7764297758478738 0.65615237596382503 5.4991468825904999 78 79 83 1.0091413711782447 46 3298 43 2502 45 3871 52 1267
4884 3.2992299042528757 0.65938589133270809 5.0221180585826755 74 69 58 1.792930659260908 41 4370 44 4478 43 2519 42 3969 43 3044
4885 0.75541716109144819 0.8177501251698821 5.9722326100826884 120 121 120 0.5850760270513905 38 3687 44 4481 43 2524
4886 3.384633855033063 0.87495913260382507 4.933582484663555 36 37 41 1.4669679271873299 32 4122 30 3321 17 1395 14 1146 11 1239 12 1016
4887 5.0242967143830155 0.83650636291196567 4.7509163404330961 44 49 45 1.3794948069975905 41 4414 43 2574 47 3456
4889 3.0836352224120014 0.92180315512000754 4.9850300868530288 72 71 85 0.94966360639519243 32 4132 43 2578 27 2276 12 1063 3 1084 8 1306
4890 1.3990087752965985 1.1295011373416139 5.5993766638622162 130 130 122 1.6452978255921871 38 3755 39 4868 40 4969 43 2592 37 5478
4891 5.1605659873107275 0.95200212619408464 4.6982423987096569 61 63 60 0.86989134766253129 38 3137 49 1656 42 1549 44 2056 33 2541
4892 4.7023081608953126 0.9413151892568139 4.4966918200103683 88 88 81 0.78655223243192229 38 3757 43 2596 47 3483 48 3227 49 3714
4895 3.2744688636641164 1.3248394320600183 4.4378626170351385 199 192 184 0.58874608535778306 41 3926 42 2798 43 2655 40 3545
4896 3.3082365312601194 1.3229915539462709 4.3405065925177988 163 157 145 0.89491851076248774 46 2740 43 2656 47 1542 48 2621 49 1796
4898 5.1009228698383646 1.5262408552786821 3.4343065167826738 218 208 196 0.52881411586379667 45 3291 46 3460 43 2679 47 3603 48 2651 49 3083
4899 3.7359082295650974 1.5648667594074206 3.2086784769809831 205 197 184 0.5320405963748871 46 2776 43 2682 47 1632 49 1885
4900 3.3920560792432237 1.5879818963519063 3.1362314224618304 189 181 168 0.28799420575022316 46 2779 43 2683 47 1645
4901 1.2475854193362075 -1.2330236305284052 7.718942117159119 11 21 30 0.50239757397377105 38 3232 40 4460 43 2718 39 4993 44 4761 47 2894 37 3294
4902 0.82655865726425548 -0.84982236271198874 6.1213075206850815 96 99 104 0.87267700268986914 40 5081 43 2728 39 5651
4903 0.34095913773038228 -0.77060443887746732 6.3622595353163689 62 62 60 0.5107402041658875 45 4139 46 2880 43 2738 47 2920 48 2765 49 2147 51 1958 52 2186
4904 0.30358645830560216 -0.71545082580122987 6.4807631951018871 94 94 94 0.81928221564768655 39 6076 46 1898 43 2746 41 4001 48 234 49 316
4905 5.1328749655972379 -0.49168686800106381 5.6942084139423894 33 34 36 0.60505395053950228 40 4517 41 4030 43 2774 42 3648 47 3687 49 3267 52 3378
4907 0.53882282460003939 -0.28120574206675475 5.9090145305120867 89 90 95 0.56374119046499693 39 5050 42 2931 43 2785
4908 0.64214264319953795 -0.10889794039710828 5.815956415850648 93 94 99 0.63760001297986424 46 2986 43 2825 47 3047 48 2861 49 2347 51 471 52 3439
4909 6.1859691916678328 -0.1961004936812423 5.8871490540714628 73 73 65 0.62054512180507382 41 4083 42 2981 44 4871 45 3582 43 2829 46 2037 44 4053 47 2005 48 1979 49 2294 51 407 52 399
4911 2.1526133422360689 0.054086980039188923 4.7135404657718736 239 216 229 0.10356691153962638 46 3617 43 2869 48 3460 16 4155 10 2028
