# 3D point list with one line of data per point:
#   POINT3D_ID, X, Y, Z, R, G, B, ERROR, TRACK[] as (IMAGE_ID, POINT2D_IDX)
# Number of points: 398
14101 -16.558645237513712 -2.222706128242657 74.68268588663095 182 180 178 0.565318394278277 39 560 38 462 40 539
14102 -5.875663733136865 -3.0748755716934273 68.68914798308434 103 102 105 0.35873847936962044 40 540 39 559 38 463
14103 -3.3916029815082775 0.2508946879621609 67.688087453107 220 215 217 0.8996925237372051 39 558 40 536 38 467
14104 -14.789381014897307 -2.558784290651448 73.81735995967365 172 170 168 0.4154548396348665 38 470 40 548 39 569
14105 -14.789381014897307 -2.558784290651448 73.81735995967365 172 170 168 0.4154548396348665 38 471 40 549 39 570
14106 -4.2286000256126774 -2.664406539052162 67.91852569558999 146 147 139 0.3343030747871501 39 565 38 472
14107 -4.379838943177666 0.7966853911662913 68.40020752421826 45 44 49 0.5112424193427265 39 564 38 473
14108 -3.316159481782519 0.12876884065870273 67.74922940926369 118 114 127 0.9376897541582053 40 546 39 566 38 474
14109 -16.374057757385934 -2.183027554791306 74.8567581546468 40 40 37 0.674712129496703 39 578 40 555 38 475
14110 -3.1763625321083966 0.08066595156127955 67.73070509903943 117 108 134 2.7573080606296303 44 593 43 797 38 478 39 572 42 546 45 716 40 550 41 400
14111 -3.1763625125358286 0.08066588020885278 67.73070515912428 117 108 134 1.8666277607737396 38 479 40 551 42 547 41 401 43 798 39 573
14112 -13.767748819893058 -1.3228573109975303 73.57015995270874 91 92 95 1.0776549087628238 39 583 40 562 38 480
14113 -2.8822553137521503 2.5625712769510645 67.84011841949071 206 198 185 1.2206381356490286 38 481 39 571
14114 -6.246529567885641 -2.7391867831954224 69.18641665271022 22 23 28 0.3883170547642118 39 581 40 558 38 483
14115 -18.236995682986045 -1.738681482369504 76.20819095683125 36 35 40 1.063153821544409 39 592 38 485 40 567
14116 -17.637802123724747 -2.433750392844655 75.83291626082445 79 78 83 0.06076717475411205 38 487 39 593
14117 -20.392766952330437 -8.546688082076916 76.76679992714352 73 74 77 0.1623799279539238 38 488 39 599
14118 -15.579296111576042 -2.3506443510854553 74.94169616813375 137 137 137 0.14813234445818285 38 499 39 606
14119 -15.579296111576042 -2.3506443510854553 74.94169616813375 137 137 137 0.14813234445818285 38 500 39 607
14120 -21.393129348457915 -1.8373725430149592 78.43568420506627 81 80 83 0.07719742570467578 39 615 38 501
14121 -12.516440385633025 -2.7971597052723487 73.26524355069758 22 22 22 0.35456716400710303 38 510 40 582 39 623
14122 -2.9212744238874193 -0.523386364881456 68.02950287150209 242 242 242 0.29714595948249256 38 517 39 618
14123 -3.675501568578519 -0.005728591777654214 68.54248046745846 22 23 28 0.5507321345328041 40 581 39 624 38 519
14124 -4.9705328943595015 -0.9818216008030467 69.1975631731978 70 68 64 0.18459614466780422 39 626 38 520
14125 -5.3546004178049555 -2.9864525719602137 69.20606233364364 115 116 121 0.17363345758103169 38 521 39 627 40 583
14126 -9.820121762596045 -1.9995599331844356 71.97152712368323 95 96 99 0.7540008263361959 40 587 39 634 38 524
14127 -5.612831111812227 -0.8563514986392213 69.64851380231428 112 111 114 0.15598303291108895 39 631 40 584 38 525
14128 -22.95478820773281 -1.6242405191791487 79.75080871672742 107 106 109 0.10381474185372966 38 527 39 645
14129 -4.699812412637502 -0.9695993694400044 69.14011383169525 180 178 176 0.1405087269278958 38 528 39 633
14130 -4.5853991509618375 -0.7617285306356708 69.17823791775274 34 38 40 0.3404163468920722 39 642 38 530
14131 -3.4667279430807323 -1.2950323308626395 68.54381563567688 201 201 201 0.5465063109493776 40 597 39 649 38 534
14132 0.4643008648398016 -5.007928442911291 65.84511572375044 255 217 247 1.3702661631846997 38 538 39 655 40 599
14133 0.9014775756619597 -4.951903813795948 65.61006927362297 255 215 249 1.104017668453776 39 656 38 542
14134 -14.90450572907467 -2.3251419071428416 75.32798767200882 39 34 33 0.2911407192735542 38 543 39 670
14135 0.9835966509481783 -5.052068283914706 65.55910498204689 232 213 217 1.395460307166747 38 544 39 657 40 600
14136 -20.42669291978566 -10.593957889669523 77.71122748904139 107 106 109 2.5622157727349064 41 474 39 674 38 547 40 612
14137 -20.426692943065277 -10.593957924039932 77.71122744977012 107 106 109 1.055642516755509 40 613 39 675 38 548
14138 -23.543951013383456 -8.431642522322925 79.85726932193046 28 33 41 1.1979929016183735 40 619 39 677 38 553
14139 0.38341017925643545 -4.987943244096746 65.97879797413964 255 223 247 1.4680457436025447 38 554 40 602 39 661
14140 1.20742657179069 -5.090624881149275 65.49629980603518 128 69 92 1.5114959212812966 40 603 39 667 38 558
14141 1.20742657179069 -5.090624881149275 65.49629980603518 128 69 92 1.5114959212812966 40 604 39 668 38 559
14142 -24.881645202164815 -0.9200891858982392 81.61725616550846 28 30 30 0.14513627886749167 38 562 39 680
14143 -26.240236282493935 -2.0070076014142613 82.4214782718912 75 79 83 0.5254910016477847 38 567 39 690
14144 -12.090723037123759 -2.8526370531992664 73.87502288935612 30 31 34 0.2568918075854842 39 687 38 572
14145 -18.03761291482032 -2.2228646300055788 77.73221588232285 31 30 33 0.16764128831716107 38 582 39 705
14146 -18.03761291482032 -2.2228646300055788 77.73221588232285 31 30 33 0.16764128831716107 38 583 39 706
14147 -6.296866893291332 -3.183640633220762 70.51021573419628 19 12 12 1.3434058895938812 39 701 38 585 41 481 42 607 40 630
14148 -10.865240059987075 -1.9716924604013017 73.48349772349171 12 0 12 1.0248431116573806 41 486 38 588 42 610 40 636 39 708
14149 1.626572283378851 -5.151767769366906 65.57295996361714 255 225 238 1.263233769774428 39 707 40 637 38 596
14150 -3.184520470043278 -2.3893783293635353 68.87308505072863 60 61 64 0.3199843219145779 38 599 39 713 40 640
14151 -3.3998765947362397 -2.474266769215861 68.9986953740491 255 255 255 0.24082396424027064 38 600 39 714
14152 1.384375003503467 -5.0792461010815915 65.75180059923355 126 79 98 1.5485833103771416 39 711 38 601 40 639
14153 0.1501294974122979 -4.764584059090662 66.6062545766698 255 243 255 1.1658904393649807 39 721 38 604
14154 0.6578191522455987 -4.908532613897405 66.30526733302415 117 68 88 1.186075052608249 38 605 39 723
14155 -2.837208270998437 0.05369993365504161 69.08580017487621 250 248 246 0.48329527644089293 38 611 39 730
14156 0.5847647424273908 -4.850097250835082 66.37644964517786 255 231 251 1.5018154063072586 38 612 40 650 39 728
14157 -17.30066490200566 -10.351084712365115 76.73809814397003 101 102 107 0.3902638454579884 39 749 38 613
14158 -3.137025118013419 0.22986244621156998 69.31616211230521 249 247 248 0.3034763782118538 39 732 38 614
14159 1.117717505094712 -5.0080199182739005 66.05287933272962 142 71 98 1.107324463999031 38 617 39 731
14160 0.7716921212871183 -5.00195415050634 66.2822800291873 147 67 99 1.4456749424243167 40 654 38 618 39 735
14161 0.8467964768068587 -4.91038520376966 66.27886206022369 255 221 244 1.4465795660492848 38 619 40 656 39 736
14162 0.7008379344870515 -5.009286475352643 66.40423590058096 255 238 250 1.4977847616054512 38 624 40 661 39 741
14163 0.8003657464147683 -4.984843725264081 66.35241699129186 222 205 211 1.2539062079724654 38 625 39 748
14164 -9.396916364729035 -2.148302813476688 73.07038121005054 80 81 84 0.8439399964602478 38 628 40 667 39 759
14165 0.6936743860135387 -4.86690806797439 66.5036468497705 255 227 253 1.136519211295845 38 633 39 756
14166 0.6936743860135387 -4.86690806797439 66.5036468497705 255 227 253 1.136519211295845 38 634 39 757
14167 -11.92688558073428 -1.6869080744242786 74.79519659281192 12 8 17 0.6291766669513406 41 515 39 762 38 636 40 672
14168 0.34891443888607054 -4.875059674604374 66.7555847767098 150 58 94 1.4673668295843008 39 760 40 670 38 637
14169 -0.2437013144707909 -3.0727152253168395 67.36579898785405 140 141 144 0.7679644972792851 39 761 40 668 38 638
14170 -10.616667747220767 -2.0281136057007974 74.10282135126228 221 150 81 0.04719189188443207 39 773 38 641
14171 -10.991280555355775 -1.8231153501331328 74.44547271833596 39 0 0 0.14770112681956526 38 644 39 777
14172 0.9481000544223646 -4.954193186990711 66.51168066295293 123 56 86 1.683827457255717 38 645 39 768 40 680
14173 0.5563165553647599 -4.975049490203854 66.80088806129183 255 209 232 1.1147421313819268 39 775 38 648
14174 -2.5888802734572285 -0.5805241083603457 69.38781740514176 198 188 192 0.4281291590126985 38 650 39 779 40 686
14175 -2.5888802734572285 -0.5805241083603457 69.38781740514176 198 188 192 0.42812915901269855 40 687 38 651 39 780
14176 0.8423125751271909 -5.0758442823950345 66.64476013156151 162 56 106 1.1924525878704118 39 778 38 653
14177 0.41995036711372674 -4.937184805042087 66.96867370616046 255 225 246 0.9973159210083311 38 656 39 782
14178 -14.101911542443819 -1.0876371130734424 76.74090578089071 27 22 21 0.7855641807601418 39 788 40 694 38 659
14179 -11.123418807732852 -1.6960598253845245 74.84710693480898 72 70 71 0.0780947761239844 38 661 39 790
14180 -11.123418807732852 -1.6960598253845245 74.84710693480898 72 70 71 0.0780947761239844 38 662 39 791
14181 0.4656171507700115 -4.880828852108749 67.02008819544298 180 144 154 1.1296835321455956 38 663 39 786
14182 -2.9977869177167134 -0.5137091986814315 69.84503937677903 235 235 232 1.3118185607485013 40 693 48 795 41 541 38 665 46 772 44 689 49 827 43 925 50 748 47 790 45 831 39 789 42 667
14183 0.4473684737980673 -4.982856745148157 67.15576171880588 148 56 99 1.0986344141880222 39 792 38 676
14184 -3.091117836862179 -0.30601860642755474 70.09810639569439 36 36 36 0.4504210471975134 38 679 39 796 40 700
14185 -1.0620256649964892 2.7091760527833624 69.18764496813962 209 200 185 1.1569312149800843 39 794 38 680
14186 -12.199526765707224 -1.3058663742137309 76.06164558226307 125 91 71 1.0867171446411756 42 683 40 715 38 687 39 816 41 555
14187 0.40182340232434843 -4.923223490290764 67.48677062987096 255 234 252 1.1190921205733841 39 819 38 698
14188 -14.041162490441232 -1.1400425446247762 77.6037292490612 33 31 27 0.11667203530137651 39 833 38 701
14189 -19.665430068604568 0.06349869683821226 81.59984588720816 120 114 107 0.036133908274206046 39 839 38 707
14190 -10.166861533789628 -1.381606818708577 75.1877212534784 173 109 65 0.12938493086749728 38 712 39 840
14191 -10.166861414795152 -1.381607006913823 75.18772147059227 173 109 65 3.7064596228014994 48 799 49 831 44 705 43 954 38 713 45 845 46 781 47 797 39 841 50 751 42 697 41 571 40 726
14192 0.2746414792393281 -4.8228579254813 67.94195562346398 146 87 110 1.5217214666468706 39 846 40 730 38 722
14193 -19.231287002750648 -7.106592181325598 80.79834747312879 255 255 255 0.46392676301937674 38 724 39 855
14194 -19.231286978690427 -7.106592174339938 80.79834750820783 255 255 255 0.7083434318273764 39 856 40 743 38 725
14195 -4.8804683351737435 -1.956836105646626 71.87286381807981 61 58 64 0.5381487708155475 39 851 40 736 38 728
14196 1.044717431699463 -4.871734137080211 67.49628448445088 255 241 255 1.2102671574829897 38 729 39 848
14197 0.8898657572911897 -5.038141244797959 67.59674072296446 167 59 103 1.0447227571442446 38 730 39 849
14198 1.031150008767005 -4.975319933068587 67.53752142021973 131 63 89 1.659560313550757 39 850 40 734 38 731
14199 1.2498268430556163 -5.00822984642099 67.51394664382721 150 74 105 1.7526264462506025 38 734 41 599 40 746 39 860
14200 1.2498267893949275 -5.008229727217894 67.51394653268656 150 74 105 1.3788989480217544 38 735 39 861
14201 -4.069477081215213 -2.171470168473365 71.59256744525388 55 54 59 0.08685184902088484 39 868 38 738
14202 -12.899889944334065 -0.5776234319588845 78.08092499192612 111 105 96 0.49789548298626096 40 766 39 882 38 750
14203 0.9864601076480188 -4.90204587246847 67.92494979684835 165 62 102 1.814754257158544 42 728 38 752 40 759 39 876 41 609
14204 0.986460055579477 -4.902045796955509 67.92494970309953 165 62 102 1.700505885655267 40 760 38 753 39 877
14205 1.1788904676909315 -5.016297812211841 67.87187957779955 255 211 230 1.1241955223557274 39 880 38 755
14206 0.40652331829556354 -4.746489042190274 68.46154785168933 145 62 93 1.0343272071419207 39 884 38 756
14207 0.9203671822971243 -4.979331965228126 68.11174774189274 255 226 253 1.1479637800757696 38 758 39 888
14208 -1.7367638261395009 0.017947396908523212 70.75081633289939 242 242 237 0.7128452310270648 40 772 39 893 38 761
14209 -2.161453469022153 0.3501284140528734 71.16619112313874 43 43 43 0.2962086902472666 38 763 39 896 40 775 41 628
14210 -2.1614534363195315 0.3501284079815703 71.16619116890887 43 43 43 0.449290343465613 39 897 40 776 43 996 38 764 41 629 42 741
14211 -1.919540524719042 0.01064744084174129 70.97631073144444 222 222 217 0.13381481805658335 39 901 38 769
14212 0.9596582062888704 -4.866272444523752 68.26273345937813 152 85 108 1.2041052569378388 39 899 38 772
14213 -1.6763018672059105 -0.2573646475236431 70.81528480368277 244 244 239 0.76677944156475 41 634 39 903 38 776 42 748 40 780
14214 1.1984331616234116 -5.020553583809161 68.1459197998562 255 207 236 1.295231367915098 39 904 38 778
14215 1.1984331616234116 -5.020553583809161 68.1459197998562 255 207 236 1.295231367915098 38 779 39 905
14216 -1.6128773305456516 -0.12099609806945094 70.86759198966695 165 161 172 0.8293967354311046 44 757 40 785 43 1005 42 755 46 848 38 783 39 908 45 904 41 638
14217 1.4666626717117006 -5.015961717905977 68.03955846770663 255 237 245 1.6404036053408877 39 909 38 788 40 787
14218 -2.4108626842896825 -0.11693402869453288 71.51614380126686 83 83 83 0.27508047194977603 39 912 38 791
14219 -2.4108626340154293 -0.11693410817621379 71.5161439033076 83 83 83 0.8610992984950115 39 913 42 758 40 791 41 642 38 792
14220 -18.645257925303312 -8.553945536027047 81.84194186800202 158 161 151 0.6720812581966674 40 810 38 793 39 926
14221 1.5135493541913647 -4.918904375350902 68.13626104328765 255 240 255 1.608309070644875 40 797 39 916 38 801
14222 1.3513257766292026 -4.933965276573979 68.27522283485494 135 87 101 1.6418887888736453 38 802 40 799 39 919
14223 0.45855416751824024 -4.741466656341027 69.1629487114624 196 145 163 1.810337840776473 38 824 41 669 40 824 39 945
14224 -1.7825281308938214 0.2759334967197031 71.62664041431603 246 246 246 0.7032024483874968 38 829 39 954 43 1047 44 778 41 674 42 783 40 832
14225 -1.7825281308938214 0.2759334967197031 71.62664041431603 246 246 246 0.7032024483874967 38 830 39 955 43 1048 44 779 41 675 40 833 42 784
14226 -5.23383325626195 -1.7672703434149952 73.90155044732406 231 230 235 1.9528239480189387 38 836 43 1051 45 932 44 781 39 960 40 836 42 787 41 683
14227 -5.233833303434392 -1.7672701455155164 73.90155032574171 231 230 235 0.6243203623739034 38 837 39 961 40 837
14228 1.4736005082019588 -5.023325437477165 68.54172515918087 161 81 116 1.021554507246449 39 957 38 838
14229 -11.849148771344455 -0.9908884981394004 78.98791503634004 86 83 70 0.7037004070951396 38 841 40 840 41 691 39 973
14230 -23.950908654151657 -7.284276493178085 87.26610566157177 26 31 39 0.19825210660470904 38 849 39 993 40 858
14231 1.596299410734187 -4.968001360777771 68.71923065192381 184 142 159 1.2683404598662273 38 852 39 979
14232 1.7453433811519536 -5.0546438595300165 68.6707003509215 237 213 219 2.0197179687126865 42 805 46 904 43 1070 38 858 40 849 39 986 47 919 41 706 44 803 45 956
14233 -12.925719260729887 -0.8820315018104242 80.25067138776795 9 11 11 0.06597327188523186 38 859 39 995
14234 -7.702082613866966 -1.2143643369478854 76.44612125762333 39 38 41 0.6780303415682177 40 861 39 1003 38 861
14235 -13.900903698432478 -0.3146510523298723 81.3364181501268 5 9 11 0.7997930819421496 40 867 39 1014 38 867
14236 1.5249408495574879 -4.900608534601877 69.07449340860681 55 33 41 1.084615712992267 38 870 39 997
14237 1.5249408495574879 -4.900608534601877 69.07449340860681 55 33 41 1.084615712992267 39 998 38 871
14238 1.7085479508843089 -4.983507628416758 68.94540405306482 244 218 227 1.1705591156517245 38 873 39 1001
14239 1.7085479771493908 -4.983507703475884 68.94540410800911 244 218 227 1.6293513933519892 39 1002 40 859 38 874
14240 -7.348425865200801 -1.3903756195843744 76.36952972597352 189 166 95 0.617898755535264 38 875 39 1018
14241 1.347767473394117 -4.932129378464216 69.27087402384743 110 52 72 1.130509968822368 39 1008 38 880
14242 2.499218015474471 -5.105837893786071 68.38773351656363 255 235 244 1.4391487044570324 38 881 40 862 39 1005
14243 1.882791043395108 -5.092582220933961 68.91058349641551 147 47 86 1.241408874579042 38 884 39 1012
14244 1.8413102902642213 -5.02429301634014 68.95939641754623 255 230 247 1.6431861204320732 39 1013 38 887 40 865
14245 -19.16409673421048 -7.732278301381426 84.53471387039713 91 91 88 2.054373074466543 43 1090 42 827 39 1038 44 809 41 738 40 887 38 888
14246 -19.16409673421048 -7.732278301381426 84.53471387039713 91 91 88 2.0543730744665427 41 739 40 888 38 889 44 810 42 828 43 1091 39 1039
14247 -14.36923315192814 -0.06430019770423974 82.0867614564829 18 19 24 0.7612908980866823 40 883 38 890 39 1035
14248 1.9835520066241055 -4.952886652006433 68.95811467934236 255 224 244 1.6146912582992934 39 1026 38 894 40 871
14249 2.1219456470024363 -5.033184599310333 68.8860626771722 113 78 93 1.8627803373409684 38 897 40 878 39 1032
14250 -12.7116756433166 -1.3279199606047731 80.95201873874038 5 9 13 0.2907316542931039 38 901 39 1051
14251 -13.255639062161928 -0.4645672196238309 81.58266450011473 188 160 79 0.49255079571097465 40 895 38 904 39 1055
14252 2.543704033783722 -5.002632612896057 68.80962371829591 157 49 95 1.2565460305582612 38 914 39 1050
14253 2.274908305222618 -4.992895121420857 69.07474517843282 255 220 241 1.2062558944653494 39 1053 38 919
14254 2.1427049644954526 -5.015593047013213 69.22795104987536 121 78 93 1.3933857151815352 39 1059 38 924
14255 -17.078042911762694 -8.357628775561231 83.8875046679989 23 31 38 1.4226697613009924 38 928 41 777 40 926 39 1091 42 867
14256 -0.6687812338601047 -0.057093740970965465 72.37157439191172 103 100 127 0.21635331712670922 38 932 40 903 39 1080
14257 -1.0837629583647277 0.5809959395274057 72.83356493972249 99 97 121 3.847803013848645 43 1125 40 908 39 1083 41 759 47 961 44 846 50 883 46 938 48 951 38 934 45 995 42 851 49 976
14258 0.31703546646586717 0.19177296083623632 71.78567505235571 220 220 220 0.4673634260744506 39 1088 38 939
14259 -10.386323933323753 -0.4265620989576169 80.23487856220582 205 182 97 1.141994784278227 38 942 39 1103 40 935 41 785
14260 -0.2047986983943979 -0.1716242195126393 72.23822021784342 233 235 235 0.3942799563210203 39 1094 38 945
14261 -17.694921374067675 -8.912135006267311 84.76873793806503 144 147 137 3.5529310310725926 39 1116 46 920 45 988 41 804 42 903 43 1155 44 854 40 948 38 946
14262 -0.17193118572815685 -0.034639225398600884 72.33030710852255 43 44 47 0.5386780816165567 42 885 38 954 43 1150 41 784 39 1101 40 932
14263 -17.411603927681014 -7.67052269289412 85.03916168224309 117 123 114 0.5292292091090537 38 959 39 1133
14264 -0.47475309871487154 -0.10495983622250296 72.73986829237649 23 25 25 1.3229687029077255 38 965 48 979 42 898 47 984 41 797 46 974 45 1027 49 1009 39 1114 40 941 44 883 43 1161
14265 2.552937508769838 -5.063372607126537 69.51018524208986 127 72 91 1.2215118108420149 38 972 39 1111
14266 -0.25217179870885165 -0.43174081718694873 72.55156709528217 223 224 227 0.23734815854289182 40 945 39 1117 38 975
14267 -0.5778104441775991 -0.5559213315199 72.87760165644808 216 216 216 0.26638075308492326 40 950 38 979 41 806 39 1125
14268 2.6307070266025354 -4.940959448822905 69.5538787844714 163 47 96 1.1838290671362945 39 1120 38 980
14269 3.040058375573902 -5.178841585930928 69.23836517373142 255 234 242 1.2381180061297736 39 1123 38 986
14270 -7.816803455053842 -1.0636184250354526 78.81111908109172 212 196 122 0.3017882293872413 39 1149 38 989
14271 2.628039122794337 -5.067361350111148 69.6489791874397 112 78 90 1.212182607368352 39 1137 38 994
14272 -0.2821414408691584 -0.49893913268311124 72.81423955973291 30 32 32 0.6890697060164871 40 963 42 917 39 1144 44 904 41 828 38 998 43 1181
14273 -1.7304232118521794 -0.5487512964925547 74.13668060415331 197 193 187 0.2004387655075774 39 1152 38 1002
14274 -1.672789203932123 -1.0849527403030144 74.03643801331592 181 180 173 0.4026688722706854 40 974 39 1161 41 838 38 1009
14275 -1.5481807987676037 -0.97463790632015 73.95842746761227 229 228 219 0.30647176959759526 38 1012 39 1162 40 976 41 840
14276 -1.548180818333186 -0.9746378688570185 73.95842743068319 229 228 219 0.09327849391707302 38 1013 39 1164
14277 -12.544402131086485 -0.38248597421026836 83.21881102167436 148 136 99 0.5002586707076478 40 1003 38 1024 39 1186
14278 -1.2111363117025205 -1.1226819521134617 73.72625735019903 96 95 88 0.4607085635495878 39 1167 40 983 38 1025
14279 -0.9278440279301663 -1.3956487248746428 73.48801424697508 233 232 225 0.24329802811871445 40 987 38 1031 39 1176
14280 -13.002009402136384 -0.3430782002166837 83.6869506726353 47 35 7 0.4764382585991062 39 1193 38 1033 40 1009
14281 -12.507651330408246 -0.44399382762813316 83.38505553781846 123 114 87 0.4380781905680082 38 1045 40 1015 39 1204
14282 -9.216599486754344 -0.9172425307391393 80.58303067562127 190 175 94 0.37264278388754274 39 1201 38 1046 40 1012
14283 -14.658642799204552 -0.004854187498797288 85.28900143077979 46 37 10 0.5787985258413614 41 878 39 1207 38 1047 40 1017
14284 2.887980700729855 -5.119076724075324 69.8031234746008 141 95 111 1.246054397606882 39 1179 38 1048
14285 2.887980700729855 -5.119076724075324 69.8031234746008 141 95 111 1.246054397606882 38 1049 39 1180
14286 -11.358029365378439 -0.6413766185224796 82.44713592667786 49 43 20 0.6014380386768658 38 1050 39 1206
14287 2.898240329364693 -5.168637270668218 69.84225463937533 255 232 244 1.053491105873897 39 1182 38 1056
14288 -12.716974258143699 -0.505434754582076 83.72257995728917 173 159 130 0.4244497927440196 38 1057 39 1212
14289 -10.20025444016921 -0.778645996532257 81.59378814844405 147 139 103 0.6142289351427695 39 1210 38 1060
14290 -0.16638596344273512 -0.25333494452639305 73.33887481937813 83 83 83 0.28456950430792866 39 1202 38 1064
14291 -8.6555947966045 -1.2095505021790174 80.39728549591474 35 33 31 0.4296756166154857 39 1216 40 1025 38 1069 41 885
14292 -2.4446622768605546 -2.1238663147588817 75.51471722408859 229 229 229 1.5663760444235273 38 1077 44 953 45 1087 40 1036 46 1029 42 971 43 1227 48 1025 39 1226 47 1027 41 895
14293 3.602239595601981 2.399206012037571 71.37843316307892 139 130 126 1.078474738973515 41 897 38 1085 40 1038 39 1232
14294 2.0497894289564966 1.4570902505993941 72.72684479232419 236 236 236 0.6509841971065158 39 1239 38 1091
14295 1.2419322296841264 0.23302328418061008 73.30466470792283 215 215 215 1.106901057468601 48 1036 47 1039 42 984 46 1045 39 1247 40 1055 45 1101 38 1094 43 1242 44 967 41 911
14296 2.0628823746917413 1.6165038044800635 72.88018795155622 27 27 27 0.6787118350240305 40 1053 38 1097 39 1249
14297 2.1261522633762406 1.3299379302737058 72.84620659452841 203 202 207 0.8868442550588425 41 917 39 1253 43 1246 40 1058 38 1098 42 986
14298 1.751207232621343 0.853267902441863 73.21633148505475 64 64 64 0.3340958567365341 39 1261 38 1101
14299 -11.893637624878496 -6.868622280909793 84.17550662609034 18 28 36 0.9014765239238093 38 1111 40 1091 39 1283
14300 3.9755988135775926 -4.975600714673328 70.75524139464855 11 11 21 1.08175393381594 38 1126 39 1294
14301 2.5012768984786584 1.3460954331187054 73.44909660890661 27 28 31 0.7123721112164135 38 1135 43 1299 42 1029 40 1100 41 966 39 1303
14302 2.5012769579041763 1.3460954386585728 73.44909666962526 27 28 31 0.3772978282172767 38 1136 39 1304 40 1101
14303 3.736472863910691 -5.566416331926736 71.09996799209047 0 1 3 1.4961678868258212 38 1146 40 1106 39 1309
14304 3.6704645176015664 -5.579963202748083 71.23274231079945 2 6 8 1.0741558491189573 39 1314 38 1153
14305 4.234556632852475 2.706374332983154 72.30187224751522 126 121 118 1.4101903641747802 39 1312 38 1154 41 971 43 1313 40 1109 42 1040
14306 4.118605646041612 -5.499379707015787 70.87213139900189 20 14 19 2.0835034957302967 38 1163 40 1116 39 1320
14307 4.261871816463516 -5.671772475444353 70.7183685313523 0 2 4 1.3044581521147656 38 1167 39 1322
14308 3.774377824688272 1.815242182636827 72.64174639496659 31 30 33 2.174436510237677 39 1328 44 1036 47 1126 46 1125 48 1111 50 1027 45 1184 41 982 43 1322 42 1050 38 1171 40 1118 49 1156
14309 3.6698031426779014 -2.634619003814993 71.8981704736922 12 16 18 0.2552738612635773 39 1340 38 1175
14310 -12.628430356047128 -7.048192008032936 86.33411408462307 84 79 78 0.5210269236206827 40 1210 39 1403 38 1177
14311 3.861741065911309 -2.13842369026891 71.8450851475393 225 221 213 0.5685789109643268 39 1346 38 1187
14312 4.338350305365723 0.6769783473651185 71.94756312570338 236 236 236 1.282801361337673 41 988 40 1132 39 1342 38 1188
14313 5.3747763640798185 -4.972317698740498 69.88393402269637 11 12 17 0.2035750453396339 38 1192 39 1333
14314 3.876052379706275 -2.6902494495279257 71.74612427013194 17 18 21 0.2707512066587104 39 1349 38 1194
14315 4.180385190268613 -5.635412891312213 70.8968964877485 159 148 143 1.8717646918588575 42 1062 38 1198 39 1352 40 1141 41 998
14316 3.6491332054516463 -2.4040708618317606 72.03066253959277 235 236 228 0.42189712018979414 38 1202 39 1361
14317 3.9381031989524287 -2.3028540697818123 71.78429413174409 243 241 237 0.5217211649050096 38 1204 39 1359
14318 -6.31583832919664 -4.82167530270567 80.99731446174059 27 28 31 0.19654628998672807 40 1194 38 1209 39 1405
14319 -6.160017490009392 -4.947835925952241 80.84329986674473 76 77 82 0.30391135233207944 39 1407 38 1214
14320 -11.287120795102982 -4.8923911827344835 85.74219515167202 129 132 122 0.8023462867668004 40 1226 39 1421 38 1222
14321 4.347205670447164 -4.899072718918162 70.97895818164021 183 170 149 1.5576711995708923 39 1374 40 1155 38 1223
14322 4.518225252119428 -4.773573540795069 70.88685617802288 160 149 142 1.6949461383692093 41 1021 39 1375 38 1226 40 1158
14323 4.603832304764688 -4.8930284021497865 70.79607401283538 209 202 186 1.5195167855931624 38 1230 41 1022 39 1376 40 1162
14324 4.488023313030574 -4.972331119083318 70.89100652172469 213 206 188 1.5427894405807194 38 1231 40 1163 39 1378
14325 4.509972760388878 -5.060151533457888 70.90738706299324 48 52 54 2.930896148675935 38 1235 49 1207 39 1386 44 1085 43 1363 46 1161 42 1087 48 1161 41 1035 40 1168 50 1079 47 1169 45 1242
14326 4.4738051428098045 -5.465742068887234 70.8630984257951 58 53 52 3.0923450713519975 50 1081 47 1168 45 1241 49 1206 41 1038 48 1160 42 1089 39 1387 44 1086 43 1364 46 1162 38 1238 40 1169
14327 5.062712669506647 -2.783200507201858 70.83537292690075 166 155 138 0.1067790195014173 39 1382 38 1239
14328 4.2467975633785375 -5.635370726766415 71.06519317735658 231 227 217 1.2883747987969911 38 1241 39 1392
14329 3.8635933424791458 -0.3430968274047474 72.50905609621525 172 162 140 1.139832612057569 39 1396 38 1248
14330 4.6553583148034505 2.379505148866945 72.34244537918408 171 161 149 0.6481802493089583 38 1253 39 1399
14331 4.592128308703853 -4.8731799846092505 70.97531896059941 217 215 195 1.5061633718233114 39 1402 38 1254 40 1184
14332 4.598176003691187 -4.497531409249862 71.06258392353607 200 191 172 1.0929261605111291 39 1408 38 1256
14333 4.598176003691187 -4.497531409249862 71.06258392353607 200 191 172 1.0929261605111291 38 1257 39 1409
14334 -10.77617540555792 -5.301236943605418 85.60743721029208 229 232 212 1.434149125100278 41 1142 42 1180 44 1116 38 1258 43 1464 45 1252 40 1276 39 1464
14335 4.623284293601108 2.0625540930841724 72.38698574804337 104 94 84 0.6636647411895724 41 1055 39 1415 40 1190 38 1261
14336 -16.547069572763977 -10.217028605600067 90.24778745057493 152 160 146 0.8176998400553006 39 1497 40 1290 38 1262
14337 4.018553757819008 -5.63383729243324 71.46920780388962 69 67 63 1.8789640256285711 39 1418 38 1264 40 1196
14338 4.515103879194117 -4.759040073341017 71.19173442719575 180 170 158 1.7810899726360296 42 1113 40 1200 41 1064 38 1265 39 1419
14339 4.229660146223454 -5.241064822247999 71.37713640526026 192 174 153 2.208378421698676 44 1114 45 1270 39 1424 43 1401 38 1266 40 1206 41 1063 42 1121
14340 4.2536067992239035 -5.631530350261118 71.28971101572502 165 154 147 1.7408318916407974 39 1426 40 1207 38 1267
14341 4.907510280917183 1.9145697259329657 72.20675659784217 186 172 158 0.7458942191163735 38 1271 39 1428
14342 5.775421585493025 2.223541155760354 71.45526875176145 255 255 252 1.9466489673491123 41 1058 39 1425 38 1272 40 1192
14343 4.814463992800004 1.9740997475980988 72.40678402246539 110 100 90 0.8446806867290726 39 1437 38 1279 40 1219 42 1131 43 1416 41 1076
14344 4.814464009767434 1.9740997877875357 72.40678402060558 110 100 90 0.7493952889102511 38 1280 40 1220 41 1077 42 1132 39 1436
14345 -6.0155215325468046 -4.755983837572615 81.58213805644911 4 9 17 0.17308940710931728 39 1508 40 1299 38 1282
14346 4.186811509535535 -5.684125087269155 71.53062448384416 56 49 47 1.869090331719017 39 1448 40 1242 41 1099 38 1285
14347 4.563143758272976 -4.885923456909438 71.34133152884246 207 193 168 1.4002400379939315 38 1287 39 1449 40 1236
14348 4.563143731653629 -4.885923381576236 71.34133148262373 207 193 168 0.9935246740117476 38 1288 39 1451
14349 -10.241363525644067 -8.542153363123202 85.01462554925021 40 50 47 0.78695261608843 39 1533 38 1294
14350 4.418817487252849 0.7176605296649371 72.61882768757692 214 212 213 2.821776195676535 42 1149 38 1295 39 1453 41 1096 40 1235 43 1428
14351 4.827312077043251 1.4592040793634313 72.39644614648529 16 15 18 3.0913259488254807 40 1243 44 1140 43 1434 48 1223 49 1265 39 1456 47 1222 46 1225 50 1128 45 1297 42 1153 38 1297 41 1101
14352 4.789393967553973 0.6507783218418576 72.27007286106232 235 236 241 4.018387086118657 47 1223 38 1298 45 1298 42 1154 44 1135 41 1102 39 1455 40 1241 46 1226 43 1431
14353 -10.020229335366531 -8.459963806846778 84.87782288080568 255 255 255 0.08864194571215046 39 1534 38 1301 40 1327
14354 4.602014064799455 -2.6010882937058626 71.82598877265768 236 238 235 0.450711846934585 38 1302 39 1474
14355 4.625383853835929 -2.4085261911757274 71.84310913425176 240 242 237 0.5389142116928561 38 1303 39 1473
14356 4.6674671172065825 -2.293616066398616 71.83029175184456 201 201 196 0.6436051069252696 39 1475 38 1304
14357 -9.618165956441768 -8.137871728734554 84.6023788584565 255 255 255 0.5792880912088733 40 1329 38 1311 39 1540
14358 5.088307857487182 -2.8098826495767923 71.3863372835182 112 114 111 0.4593359719159907 38 1323 39 1491
14359 4.438445125627996 -5.731466905708714 71.45838171628614 20 24 28 2.02153368532828 40 1272 41 1141 39 1502 38 1324
14360 4.5723719612941665 -5.17098855641696 71.44534301857958 66 23 38 0.9166543685449582 38 1325 39 1500
14361 4.572372150943517 -5.170988991054827 71.44534329528727 66 23 38 3.2210911738054597 41 1139 46 1248 49 1284 39 1501 47 1241 48 1247 50 1153 42 1176 44 1167 38 1326 43 1470 40 1275 45 1338
14362 -8.805567740620587 -8.501818659087675 83.8865127572112 126 133 131 0.045907172942515714 39 1553 38 1331
14363 -8.667516714127078 -8.225269323774434 83.83040618324694 39 44 40 0.14279610867747092 39 1557 40 1340 38 1334
14364 -10.022279735959778 -8.345787041316429 85.32651520089749 128 134 125 0.28090000353568895 40 1356 39 1578 38 1351
14365 5.737839734768131 -5.861147002981202 70.33071904748874 37 45 50 1.296145199637075 40 1291 38 1357 39 1513
14366 4.633929731119929 -5.350241656661368 71.59259033296695 255 238 255 1.225669999493575 38 1366 39 1535
14367 1.9613691208880406 -0.1098772091348846 75.34525288685077 18 23 22 1.0937754315236698 40 1323 41 1193 43 1517 42 1228 44 1209 39 1555 38 1368
14368 4.164960431763402 -2.249418687433799 72.73793795808437 131 133 128 1.0799663693192552 38 1370 39 1544 40 1316
14369 -10.540812491918903 -8.149729731475531 86.16588592587352 227 232 228 0.2449907607163095 39 1599 38 1374
14370 -11.539194097381733 -8.227697371374147 87.16548157681447 114 120 109 0.6269836397748717 38 1376 40 1371 41 1244 44 1228 43 1548 42 1275 39 1602
14371 -11.844028460521358 -8.318141924011067 87.56321717510512 145 146 151 0.27494154473795124 39 1612 38 1378 41 1249 40 1382
14372 4.574522497048178 -5.3910450891823825 71.78816223245123 255 212 246 1.1367023142447366 38 1381 39 1563
14373 4.0906620027644545 1.0004945943335415 73.63816070844871 206 205 210 0.20837518899409646 38 1390 39 1569
14374 4.0906620027644545 1.0004945943335415 73.63816070844871 206 205 210 0.20837518899409646 39 1570 38 1391
14375 3.8787351251646505 -4.3110208002561095 72.7583694929338 34 39 45 0.8668790977999095 39 1572 38 1395 40 1347
14376 4.702830825259573 -5.469129157336961 71.71104436142117 181 61 109 1.4700482969780122 38 1398 40 1336 39 1568
14377 4.494541237863992 -5.42227859748615 72.03350078251978 165 38 93 1.908830923773683 41 1219 42 1244 39 1579 38 1402 40 1349
14378 4.433003904088745 -5.253214355054425 72.19100189301105 255 224 245 1.2313321771750092 38 1406 39 1591
14379 4.758119585017492 -5.464091773421686 71.91074371447888 190 63 116 1.0929522380039742 39 1601 38 1420
14380 2.9666694514080363 0.14164667503225611 74.95333093288887 216 216 213 2.0086392459969464 38 1421 45 1386 43 1549 44 1245 46 1292 48 1296 49 1328 50 1195 41 1237 47 1294 39 1615 40 1369 42 1265
14381 0.4843445148932263 -2.447783966472769 76.95169828242906 104 99 98 0.2547044491763243 39 1621 41 1251 40 1383 38 1425 42 1281
14382 0.14282905907555984 -2.4433434426082092 77.41067502953342 236 236 233 0.47062633443483143 38 1434 39 1630 40 1390 42 1286 41 1256
14383 4.811387567383591 -5.256584714780776 72.07084660167796 157 78 102 1.4648607091439327 39 1618 38 1435 40 1372
14384 3.3578829797458347 3.381264682421333 75.42845917279344 214 204 192 1.2450401253560397 38 1439 39 1625
14385 4.1530804151757295 2.498816711170369 74.6359634048638 83 81 77 0.8376477919897368 39 1634 38 1446 40 1393
14386 2.2969500214907534 -0.6805189303799631 75.88114925095113 218 220 215 1.1495098288798895 42 1293 40 1396 44 1264 47 1317 41 1269 43 1567 39 1638 46 1310 45 1403 38 1447
14387 5.356099608215829 0.35417320773667216 73.0793228201875 175 173 181 1.1143207859675734 39 1639 38 1456
14388 4.129509858100589 2.854255215506534 74.95192711498986 132 127 124 1.0105320021801067 40 1402 41 1277 39 1647 38 1459
14389 -9.813018786250261 -7.411158067268329 87.29482270385174 81 86 94 0.29018890385602875 38 1461 40 1432 39 1671
14390 4.378488532555689 1.3732689750850162 74.42959593400188 25 28 35 0.2667742465458934 39 1651 40 1409 38 1463
14391 4.28415913208556 1.288798127111123 74.57050317268346 217 217 212 0.5855407281599561 39 1656 42 1309 38 1465 40 1414 41 1290
14392 -6.386444091090608 -5.416174891087319 84.37219238381294 34 37 44 0.06965751950683383 39 1677 38 1467
14393 4.4361915565632035 1.1849929111205193 74.6515426610769 197 198 201 0.28319943005221554 40 1424 38 1474 39 1669
14394 -3.820418834314745 -2.4129595800731853 83.10533905170877 0 1 10 0.5092002479167924 38 1488 39 1694
14395 -5.898184273395131 -11.13523293659618 83.76186373334185 70 75 74 0.30079876347073914 39 1700 40 1463 38 1492
14396 -10.818602547205614 -8.148809408708331 89.8559951908608 118 122 124 0.5858549682167405 39 1705 38 1494 41 1354 40 1471
14397 -4.9077167504387695 -5.377282161723047 84.08781433430934 45 46 51 0.17135735391257137 41 1347 40 1464 38 1495 39 1701
14398 -11.159536329561668 -8.44361502497949 90.5714035363518 133 136 126 0.6805150524138888 39 1711 40 1474 38 1501 41 1360 42 1355
14399 -5.289354320238319 -5.344729897034038 85.49252319659753 66 72 75 0.21080231582232312 39 1722 40 1479 38 1509
14400 -5.145995202127689 -5.428264925766159 85.66032401907484 11 19 26 1.077130199114078 38 1517 40 1486 41 1379 43 1670 42 1372 44 1349 39 1727
14401 2.0443172117522748 -2.631844520302289 78.20447537291389 232 233 238 0.2594998663007705 40 1477 41 1363 42 1356 38 1519 39 1724
14402 -3.845135204809354 -5.4561552865013825 84.23992920371057 116 121 127 0.3712473540588801 38 1523 40 1488 39 1729
14403 5.78669405026209 0.583435705579912 74.75129700153417 19 23 25 0.663827372798262 39 1717 38 1526
14404 2.0421330630516987 -2.6358917465183485 78.36658476768332 100 94 101 0.3941310830182103 39 1726 40 1480 42 1363 43 1661 38 1529 41 1368 45 1483 44 1346
14405 -3.5884515968186257 -11.277831157276184 83.18233492233982 119 117 115 0.6174076126847393 39 1746 40 1508 38 1534 41 1392
14406 -5.195322989392474 -11.219352724707399 85.31308746414108 53 55 52 0.0644138349933518 39 1757 38 1538
14407 -5.2596077883360275 -11.226074207970628 85.64616394384444 65 67 64 0.2773780115202426 38 1546 40 1527 39 1765
14408 4.377382288984683 -0.35242293823975473 77.13628387844844 30 31 36 0.23725517866824325 40 1513 41 1395 39 1754 38 1549
14409 4.377382287779945 -0.35242295262094836 77.13628388242408 30 31 36 0.22271068390390833 38 1550 40 1514 39 1755
14410 5.588947296699438 0.9646086638847289 76.17804718318287 247 242 244 0.27449878990205767 39 1759 38 1553
14411 5.588947296699438 0.9646086638847289 76.17804718318287 247 242 244 0.27449878990205767 39 1760 38 1554
14412 -2.9688758832023874 -11.809179307122086 83.45099640037714 98 102 104 0.4998772530174288 39 1782 38 1559
14413 -2.4134027894348944 -5.978819377017115 84.27986145641475 204 203 196 0.13938209756778586 40 1541 39 1783 38 1560
14414 -0.6193810411413242 -1.9423907249648396 83.36320494185571 7 11 15 0.45159310555335536 40 1550 39 1788 38 1566
14415 -2.6969270686810582 -11.84399223403873 83.40261840976328 216 214 210 0.578387543128764 38 1567 39 1793
14416 -2.703322409074272 -11.753914835133394 83.45645904653058 100 104 106 0.27301520882341845 38 1568 39 1794
14417 2.87361261887559 -2.755235679244138 79.03976438643198 223 223 218 0.21066166905606967 39 1787 43 1712 42 1401 40 1537 38 1570 41 1413
14418 5.899828434588693 0.9461178721423866 76.39967346509125 255 255 255 0.33187776205568653 39 1784 38 1574
14419 -2.8293738274503806 -11.619045290433295 83.92168427163354 23 24 29 0.4151924978504127 39 1807 38 1575 40 1568
14420 -3.1801864864456992 -6.021463866701252 85.834686298764 44 46 46 0.23935737287198672 40 1570 41 1443 39 1815 42 1426 38 1576
14421 -5.039734842147999 -5.961716570261939 88.23657988458633 119 123 127 0.8565700447878299 39 1820 38 1580 41 1453 40 1574
14422 -5.039734841343897 -5.961716611207971 88.23657988970814 119 123 127 0.6792307866172463 40 1575 38 1581 39 1821
14423 4.037813308968391 -0.3007824386570962 78.61722570513562 243 241 237 2.451168132934609 40 1558 38 1585 39 1805 41 1432 42 1416
14424 -2.7170414913301038 -10.938408854529007 84.27222442708022 41 41 38 0.055382056653576005 39 1824 38 1591
14425 -2.749547479995042 -11.032203675972907 84.31426239131861 27 29 26 0.34744379850992574 38 1593 39 1828
14426 -2.749547479995042 -11.032203675972907 84.31426239131861 27 29 26 0.34744379850992574 39 1829 38 1594
14427 6.5774993902625525 1.0302985850595994 75.96766662915277 243 243 243 0.269405944522761 38 1596 39 1802
14428 -2.399495108827933 -10.602406549145146 84.22700501793986 29 30 35 0.49801060928740704 38 1606 40 1595 39 1844
14429 -2.041377274880764 -10.878271159303157 83.75955202741801 32 35 42 1.014202081779777 39 1847 38 1608 40 1596
14430 -3.1434285628103122 -10.472080232867844 85.37851715184425 163 167 152 0.18012067604303644 39 1855 38 1611
14431 -4.305618285220589 -8.150094988501264 87.66612243736394 27 35 42 0.041361753885935645 39 1859 38 1615
14432 -2.3005876018946294 -11.231131681927142 84.43923954328947 70 74 76 0.8715622974599853 41 1483 40 1612 42 1460 38 1616 39 1860
14433 5.666275053191484 -0.6386644543382521 77.20132447520042 32 33 38 0.44163870482363476 38 1617 40 1588 39 1849
14434 5.666275053191484 -0.6386644543382521 77.20132447520042 32 33 38 0.44163870482363476 38 1618 40 1589 39 1850
14435 2.6098845609786774 -3.285679012281217 80.54260242750011 20 23 30 2.9387069515588213 39 1858 41 1472 40 1605 42 1449 43 1779 38 1631
14436 -1.2921578872922914 -6.049979211986351 85.22123718372318 42 47 46 0.14953141165937076 39 1892 38 1648
14437 -1.799867151489537 -7.115921041497681 85.72308349920685 12 15 22 0.1789255813104288 40 1647 39 1907 38 1656
14438 -1.0929892056129764 -6.649498943592946 84.94459533785675 21 24 31 0.32589590825951387 38 1658 39 1901
14439 -4.113218827184598 -7.514511072787527 88.67228695005744 234 238 240 0.4417593383830461 38 1659 41 1540 42 1514 40 1656 39 1927 43 1859
14440 -1.939725636408666 -6.377567770500891 86.18391418560476 75 75 75 0.05711226786376415 39 1916 38 1661
14441 -1.4246533956188174 -6.446828405726444 85.49687196481244 75 75 75 0.37347377267310844 38 1662 40 1648 39 1915 41 1532
14442 -1.90212678857995 -6.607388977805449 86.12627410972982 11 12 17 0.5160879215480633 38 1668 39 1926
14443 6.590809345966647 0.5238586606274434 77.14202118224777 235 235 235 0.3194919861178801 39 1886 38 1673
14444 7.014909768432273 -5.61775464101017 74.91803746618588 250 221 231 1.5547986154830338 38 1675 42 1457 41 1485 40 1618 39 1882
14445 -1.2018538123108746 -6.637371310803694 85.4309617304663 41 42 34 3.1934611472493057 40 1661 49 1564 42 1521 41 1546 47 1517 50 1388 46 1504 43 1862 44 1491 48 1503 38 1676 39 1939 45 1653
14446 -2.198698540623372 -11.152787247806165 85.55587766801563 27 34 32 0.2991148480100218 40 1666 39 1940 38 1678 41 1551
14447 7.360994341242755 -5.800068853488252 74.68984222564711 143 36 77 0.8520105155010222 38 1686 39 1911
14448 -2.4908246986399196 -11.1396484414636 86.3259963993531 97 102 96 0.3010602467525833 38 1691 39 1967
14449 -0.9992682488986765 -7.3452649362040825 85.44091032924467 121 126 125 0.21915047520875772 39 1960 40 1683 41 1570 38 1695
14450 4.317572000004186 -3.336393560932441 79.76786799487617 123 124 129 1.3220210256885623 42 1524 40 1676 38 1703 39 1957 41 1558 44 1503 43 1865
14451 5.157251359004727 -1.5437747278192824 79.29049682811481 238 239 231 0.08937418655647875 38 1714 39 1969
14452 4.052592754932706 -3.590945489074027 80.19417572220492 4 7 16 0.6025920134903483 38 1715 39 1973
14453 -2.4366703731310437 -8.356747643684596 87.63308710433287 23 31 38 0.8168019321595598 41 1606 39 2005 40 1718 38 1718
14454 -0.5863538966890617 -8.66866016604736 85.1302795421014 237 242 236 0.20393059790312107 39 2003 38 1722
14455 7.362925065976761 -5.6499276838733605 75.28580477100645 255 227 243 1.2865252067268043 40 1669 38 1723 39 1963
14456 7.362925065976761 -5.6499276838733605 75.28580477100645 255 227 243 1.2865252067268043 38 1724 39 1964 40 1670
14457 -1.1566020237984298 -8.58337974784259 86.16551971535247 76 81 77 0.12801817878411478 38 1733 39 2024
14458 -0.7773033368502491 -8.67040834935412 85.63581090398374 255 255 255 0.5982865540457492 42 1570 43 1909 40 1733 38 1734 39 2023 41 1615
14459 3.894066811760407 -3.5337657958827555 80.8639297500726 98 99 104 0.0709788409341261 39 2011 38 1738
14460 4.925297045272739 -1.2850284501067688 80.32084645515529 188 189 181 3.011420243106116 40 1722 46 1557 44 1541 42 1563 39 2025 47 1572 43 1902 45 1713 48 1568 38 1743 49 1622 41 1605
14461 6.080100001835318 1.0245578239471214 79.39443190717506 29 29 29 2.4131343389117115 44 1538 45 1707 39 2015 47 1566 43 1896 49 1617 41 1600 40 1717 46 1552 38 1744 48 1565 50 1432 42 1561
14462 -8.125546520167328 -9.77851570144554 95.82275385503087 160 166 157 1.5583525936427156 42 1611 39 2057 41 1655 40 1774 38 1746
14463 5.361250401382119 1.9225414934777725 80.84075165091882 110 106 98 0.48692620362179106 38 1750 39 2036
14464 7.576326876861485 -5.629082468960131 75.60149390247975 112 47 66 1.590914764008262 40 1712 39 2019 41 1591 38 1753 44 1529 42 1551 43 1887
14465 5.698657590643018 -1.5423577332582796 79.64366919203734 184 182 180 1.5348467014035498 47 1583 38 1764 48 1580 50 1443 49 1633 43 1921 40 1749 44 1556 39 2046 46 1571 45 1734 42 1580 41 1628
14466 5.551829274405405 -1.6068581268269793 79.85514826620175 22 22 22 0.37893626632154637 38 1765 40 1751 43 1922 42 1581 41 1629 39 2049
14467 7.695156101205337 -5.729223794308628 75.65298463346532 150 41 83 1.3407096798165987 38 1766 39 2040 40 1730
14468 6.119970207287853 1.4118055479266114 80.10307294142004 106 102 94 2.6503126890550357 44 1560 43 1928 42 1588 38 1767 41 1633 45 1738 39 2056 40 1755
14469 5.984982118198475 -1.8373590670359279 79.33436588851082 119 121 121 0.7132289811759495 41 1634 38 1768 39 2054 40 1756 42 1585 43 1930
14470 -2.959743739420131 -8.847215687061269 90.07571411152986 109 119 111 0.26970932806903913 40 1789 38 1776 41 1669 39 2086
14471 7.8151679061575186 -5.64898967592417 75.85696411278796 255 223 241 0.8541542755795539 39 2060 38 1777
14472 5.9067463889033744 -3.55612421254554 80.1063690200681 36 38 38 0.2696101237433258 38 1809 39 2101
14473 6.305188180616885 -3.6148090372735826 79.57043457170435 148 146 144 0.46368595128055956 39 2102 38 1812
14474 -2.685165404343381 -8.81981563858574 91.47296142649071 47 58 57 0.16229095008602035 39 2139 38 1819
14475 6.202193738410782 -3.5438268214151685 80.03446197673561 148 146 142 0.15320381889761353 38 1820 39 2122
14476 6.254002572527343 -3.5678772953744087 79.95069885416648 154 152 148 0.18834750416055393 38 1821 39 2121
14477 8.135158531968118 -5.866458540047323 76.59323121610448 255 223 246 1.4698218974813158 41 1680 39 2117 40 1813 38 1829
14478 8.156481745306902 -5.680320260902518 76.62101745748102 255 225 250 0.9521105577916849 39 2119 38 1830
14479 6.604078313341649 1.6572270980264008 82.34252161873405 55 53 49 1.3425856758779584 39 2167 42 1698 41 1745 38 1860 43 2046 40 1867
14480 8.614096646679798 -5.888176983598357 76.84797669858666 137 62 85 1.2450609995775699 39 2157 38 1862 40 1854
14481 8.671022417725188 -5.945191381807783 76.87041473542365 255 238 249 0.8976679835541828 38 1865 39 2166
14482 8.837285067436454 -5.90720755805447 76.78075411779758 142 50 86 1.6346871695363328 40 1865 38 1868 39 2170
14483 8.837285127037433 -5.907207684073913 76.78075417883531 142 50 86 1.7547446763255425 40 1866 42 1682 41 1738 38 1869 39 2171
14484 8.873146059971477 -5.8813719719753434 77.16733551170574 144 39 82 1.0034346181700482 38 1882 39 2188
14485 8.873146059971477 -5.8813719719753434 77.16733551170574 144 39 82 1.0034346181700482 39 2189 38 1883
14486 8.994751890941231 -5.894463791579275 77.31594849666497 255 237 252 1.725892066593828 41 1762 43 2057 38 1896 42 1713 40 1900 39 2200 44 1642
14487 4.692461492310612 -4.21930599307277 85.37200927856013 34 35 40 0.5173973179393558 39 2251 38 1908
14488 -0.3752831274693048 -8.938302980674619 92.10906982026003 40 49 49 0.3315538592659058 40 1975 38 1911 39 2270
14489 7.670311851911854 -1.5956374615130062 81.70740504763955 206 202 185 0.4985127711211068 38 1921 41 1809 39 2252 42 1777 43 2107 40 1944
14490 7.153109551586628 -4.048596388409613 81.74106598094608 83 81 77 0.43568587463394237 38 1924 39 2261
14491 9.338967325993437 -5.94450235230051 77.67198181304252 108 57 75 0.9147190560875238 39 2257 38 1939
14492 9.33209896355614 -5.935924051703515 77.87141418605958 182 158 167 0.9328816169703343 38 1949 39 2268
14493 5.8179759991115585 -4.058624749437252 84.48249054117518 87 86 89 0.3394208895461069 39 2292 38 1952
14494 9.507328036203388 -5.9737138731320165 77.77824402006682 113 62 80 0.9596424465237197 39 2279 38 1959
14495 3.3035483715326284 -6.04671147385394 88.62935640942526 9 8 11 0.3127570845559458 40 2031 41 1918 38 1975 39 2345
14496 3.5391316333710594 -5.348306132492954 88.53056334375547 112 112 112 0.697573486699043 39 2347 40 2032 38 1976
14497 3.5391316424293024 -5.348306183585975 88.53056335567669 112 112 112 0.41742258658319575 38 1977 39 2348
14498 8.377085635579286 -0.5949078314209247 82.02831263917062 7 8 13 0.629479857818917 39 2319 40 1999 41 1869 38 1982
